x,y,z
-9.942784545243596,1.0681926262922379,16.177245890148622
2.480408932396946,9.687495627255036,15.37140763756449
-5.773029786264549,8.165300183514523,15.39182348908472
3.5531525306764893,-9.347465276413025,16.881327098955545
8.462485139173747,5.327883751478019,6.231114652908827
9.545802163705552,-2.979540409424648,18.033261908671044
9.988836451131986,0.4723836920734671,1.6637076706016485
9.293323679675105,-3.6924429561998635,14.915283812673557
-3.2527830917570273,9.456183276458827,13.817619634787215
0.1351055668839813,9.999087282637198,1.8506858900099776
-4.19887372580948,9.07576219579969,14.95936867316107
4.581920178851198,8.888532357742543,17.40475686681293
-3.693235878750949,9.29300859484735,7.618497052280448
-9.061042333591507,-4.230545098313287,4.424280167668053
9.147378440213794,-4.0404786438628575,0.007901201838333982
-2.9916087830378486,-9.542026875315894,18.38231336616884
2.969246863245206,9.549009009583587,5.321563399451373
-7.678017011204371,-6.406875586091577,4.570158196612832
4.443670008703146,8.95844835078889,11.813950379541962
-5.887460380163113,8.083180702669562,5.374203033552076
9.711625435396309,-2.38418359246167,6.128093789109721
9.144246720642109,4.047561230176269,10.931057365465701
2.2850935416991027,9.735417171630862,17.060725931794874
-1.575382301797223,9.875128890459308,1.7107714506210048
8.31956587220594,5.548407311835193,3.9791475281460076
-4.235461926053061,-9.058745071639608,6.234236002886564
-4.000504273038691,-9.16493129059892,5.391070237980391
-7.516655911165681,-6.595444178608294,12.234767199011412
-6.818416082023505,7.314998436937853,3.116858196621517
9.387370814539793,3.446341421032819,16.3992723618979
-9.081299820263261,-4.186883515753269,10.600103098850774
7.031174784951302,7.110737032366266,11.293981217522918
3.469037870651473,9.379007210360054,0.617870567112313
-2.188705826424708,9.757538972782765,19.4142530954958
-9.9798953323757,-0.6337895193403913,8.506893186296429
6.756149436763607,-7.372546696231824,14.520114326932614
6.080515791764412,-7.938975230223583,11.71662487712368
8.76697327888913,4.81042404858906,3.6523013321299325
8.961261045419228,-4.437995096420443,14.911453976426486
9.924891045803172,-1.2233305885720351,14.71508360225651
-7.107594029276818,7.034351932835642,11.240078070440196
9.405493407636248,-3.3965708823622487,17.142211533180575
9.83243925768055,1.822947680001363,11.853146862200246
8.94778109135965,4.4651106975199095,3.405616316707112
-4.557178228087898,-8.901242980474224,0.09636372014128591
6.319431764813616,-7.750147235366866,6.575467284298653
-3.298156028947626,-9.440453739557036,18.78874414506013
-7.501668302121832,-6.612486119829708,17.35702683855559
-9.055324381471907,4.242770362195014,4.839484941712704
-2.547619681310282,9.670037950256477,0.35767313661440037
1.9185845631902831,-9.814226065966075,7.3903148510192835
9.995708302265546,0.29294288866536444,10.304090810431152
1.9861267090645294,-9.800780616641743,1.1714184369447467
-9.449459748738501,-3.272263812251524,11.693210077974825
8.503655856449715,-5.261923324704426,19.63155973404972
1.0833478106126697,-9.941144678619295,7.317052477881008
-0.6367585643034733,9.979706334897143,11.073525075744147
1.7658640496558988,-9.842851424162252,1.884521594141444
9.930671259022562,1.175486429195689,3.505773161399004
4.2509097678592225,-9.051506291525133,8.732470383015853
7.51055474476373,-6.602391038548613,19.330571380659737
-4.41263537415899,-8.973775629840583,17.8530746267094
0.56333018456329,-9.984120346989007,19.107903453383415
-3.8763515133444955,9.218128820156064,15.605146430892292
1.7393593771028935,-9.847569698016066,4.467879813799913
8.344839318077565,-5.510322745127255,3.8832265088770024
4.317701397743812,9.019836730225283,0.9817632104139906
-9.61765978170094,-2.738726040233347,18.148910410786865
1.114815160083247,9.9376650758037,12.497182746233717
-9.838925623011573,1.787608062424852,7.824479360363714
-5.468776402230118,8.372125456681296,8.951958078847287
-7.4439351705379995,-6.677411862153435,13.857921193405344
-4.0197864497788185,9.156490424730134,19.385916087706686
-9.973442522012805,0.7283160441091953,7.841895956626326
0.998511905667181,-9.950023817772543,18.124697887688384
-9.457288663457925,3.2495678383486943,10.677251534902354
1.681396764366854,-9.857631810976542,18.793142015949247
-9.98511496115351,-0.5454165495732046,19.687689289604357
4.438059212186691,8.96122929229717,5.032755156123465
4.109094154698635,-9.116761773119967,1.006790324374831
9.882937425079577,-1.525630313005559,17.90802883311446
-1.675967835160628,9.858556274399765,17.906779071144257
-9.123296706617714,-4.094564348379251,2.3508707330745793
-9.75550986456572,2.197732304526853,17.809401263497428
-4.795355560187621,8.775224501480157,14.006747444961453
7.1307050283766245,7.010923319954677,9.642225834142565
9.702195282931404,2.4222730423846963,5.031614323121751
4.863192401828172,8.737812063829294,2.038335542991674
7.117029451405465,7.024805462632202,19.41851887262136
-8.64706868629453,5.022768473113667,18.181215041635987
7.307958891896666,6.825960506357215,2.744406005450819
-9.99716258338859,-0.2382021857481126,15.208249312374551
7.9174874174625165,6.108468956647216,0.4702451197059698
-8.993410952859323,4.372477493708797,14.98681762582837
-5.550888063045027,-8.317910898269123,7.781240940016037
9.926106862512398,1.2134259573555637,5.577512925854697
-9.98089032083967,-0.6179226516069793,11.987918376765727
9.398389928123503,3.4161772142186475,3.197789955712169
5.656175778822431,-8.246676637231658,3.533591238721905
4.524957145502639,-8.917665772575502,0.36135570051550214
-4.138312909566315,9.103535920867055,17.863573948025493
-1.670201502957198,-9.85953482368816,18.821540323961806
-6.969542701056797,7.17115573238693,18.77027688771856
-9.367238957753116,-3.500690547356667,7.768175522195396
-9.74068921287349,-2.2625148967929603,19.351517060679132
8.57496543049123,-5.144897264851877,9.170726615120534
-0.811370530845551,-9.967029540523868,1.7680890489737267
-2.112754572064588,-9.774265605058018,13.7185007695187
7.292925725418269,6.8420197576104975,17.95932848430757
7.092908818247137,7.049159133969952,1.656489362425304
-7.216827810440938,-6.922239258682573,9.162660051717545
-9.979220091450202,-0.6443340487640012,5.331489967797268
-9.216835139244507,3.879426506068607,1.0093509007063806
-9.935423773922608,1.1346164253056794,17.124334445541173
8.775763767014618,4.794368603429799,15.856401116733597
2.6205411649813803,9.650531798954813,5.763984966710895
-2.747096557077678,9.615272253352579,7.21587324322236
9.534486613365965,3.0155538495515537,0.44801573695623986
-8.80313920488417,-4.743916118507084,3.6936614556380487
5.07103471913262,8.61885183057184,7.159363065192563
-0.3121268053377485,-9.995127655882623,12.02342557306482
8.578579180059355,5.1388694526570875,1.2568969494379045
9.987767303901268,0.4944737436110971,12.442416092412834
0.4272580172494732,-9.99086835999234,3.1639676139356254
9.582697539009894,-2.8586549067443774,14.270097088499556
-7.2214556603579805,-6.917411231485639,4.610855185837705
6.7361076722889734,-7.390862833751526,3.203046137649581
-1.2385636333687102,9.923001568381238,19.204364277837104
3.698900302255439,-9.290755435053418,10.791990994303056
-2.3880220620429795,-9.710682294833664,19.058788123503152
9.565084186144947,-2.9170472248422463,6.597888726859638
-4.002317841495972,-9.164139451996736,15.636975387320682
8.696871851303534,-4.936032820191152,9.482133635827592
4.074210254974537,-9.132404436853435,11.24438700102267
5.694709400608515,-8.220114648994928,13.533509869947464
2.2150137029926,9.75160060172457,9.822510355732446
5.50870057664529,-8.345910253343721,6.037298658756834
-9.815606010086697,-1.9115121382690516,11.240001205482875
6.324798882444409,7.7457678184044445,16.325612812078013
-3.3034442597014397,9.438604559099062,16.284932567359796
-1.028841176475174,9.946933488949707,11.957298742801296
-9.436261304406688,-3.3101318093026095,16.870708759558394
-9.965332096007554,0.8319592635951067,4.978125759282326
-8.39448185518402,-5.4343973339263885,2.003106846566538
5.237295708615851,8.518845793915627,4.027547392547612
-2.953257079656606,-9.55396632930314,0.14323920266052337
3.61430520507997,9.323990448543576,11.029116962695994
-9.920326909978886,-1.2598071277575569,12.523435881023591
9.916839400690487,-1.2869717560664429,16.635929747128596
-3.62167120902175,9.321131779657604,4.596052383726848
9.89099092704872,-1.4725143398418516,4.52494883225488
0.7582517758139808,9.97121127268272,13.79888158547006
9.654850453138142,-2.604584943429224,5.360467087953271
6.693192802521288,-7.429748993625371,6.3318381179572825
-9.25637783636257,3.784107470790935,4.845169009258299
3.7780537220213373,-9.258850364571225,4.2184946022994785
2.039782624529656,-9.78975417692737,19.268478390639142
9.994719258295667,-0.3249414529629688,4.992320122196137
-9.681533409782423,2.5035796043398992,12.664550867530453
-9.754124033493424,2.2038748465432376,13.421675972054059
-2.686295412254464,9.632435671111466,12.010363840256083
-4.282973611697648,9.036378535757652,17.317925253164855
1.6750048052269464,-9.85871994238941,2.8348495754539527
-9.853579812806124,-1.7049823672576863,18.629596296936715
-9.901137011292189,1.4026709819554872,13.064958496651549
2.087578664585546,-9.779673579377137,18.201168827446892
5.985362562801553,-8.010957183246807,3.5081527262872103
-1.6581588225891681,9.861567285126117,2.480651847053774
-9.810095816522459,-1.9395927589699216,5.167145681867728
9.921274864477146,1.2523198726738998,2.990840335383169
-8.977211609271098,4.405640898027007,10.164067675957128
-9.469841302559143,-3.2128034026913284,16.905213091722086
1.0797956191717348,9.941531140665282,9.706498674838294
-9.097374007828451,4.151841297748184,0.22042138642338838
-2.971401800738419,-9.548338669033921,13.374173609880193
-9.88366761138967,-1.5208926811470955,19.746847462840748
8.558603095830188,5.172070479802642,15.187571527383959
2.91179442655002,-9.566684546775452,12.114541022899301
-5.768171909650564,8.168732632466199,5.161593779091267
-2.0812156962120563,-9.781029660819998,15.59320198929157
-9.357491912101004,3.5266620358299576,5.754045822862873
3.7837601360029094,9.256519822978571,9.275772346469415
9.380137837597664,3.4659795365334496,5.260684606937264
-4.574482566233208,-8.892362411149719,6.348331981114392
-3.7361904100606926,9.275822401262893,15.218941235783145
3.983049633646738,-9.172530491413294,1.8453545636707935
9.98629087238729,-0.5234449465553279,2.582613678737302
9.353292259276042,-3.537785170493948,13.98835420003316
9.99980565489526,0.06234472170743514,10.16856309483227
-9.97768395261144,0.6676997392542251,17.94671135334368
-8.537210238528102,5.207306534396736,17.66149910356757
-8.681119024352405,4.963685373291376,8.882237433161418
9.459645815318694,-3.24269965441197,1.7132525851445157
-7.808699619839766,6.2469360687551685,2.720496282694269
-9.055812760663159,4.2417278606495135,12.950248824708364
1.698436436615888,-9.854710227641172,19.46538941374768
7.0464111169948795,7.095638827497562,11.553336218105406
-8.87585611378071,4.606427927088579,15.32462065180069
9.855403850416138,1.694406959736277,17.190787378632848
9.98468730351705,0.5531902484547347,1.4714012917451114
-2.4060675292008455,-9.706226818126874,15.515522429406099
-4.832715615989872,-8.754705007878199,2.753105092859529
-3.7753434678455555,9.259955815218337,15.224690234075137
2.9818226794101683,9.545089497147481,11.775649860117586
2.47102335792495,9.689893888200702,12.562493956847856
6.314487568032017,-7.75417608474099,12.642916312391254
2.7968763528044227,9.600910512400553,19.96119522695069
7.479781364616965,6.637233666033521,8.575764743302823
-8.481269708470862,-5.297930174339276,4.803140802140636
2.2002503310904125,9.754942259210791,19.77850331569933
-3.4179778188605687,-9.397735239395562,10.866158756748979
7.528359593079895,-6.582081877132941,2.361691808367272
5.668339620248642,-8.23832057821978,10.90037643005637
-2.8852222818122284,-9.574731974553348,17.42567494142613
-0.96437370307235,9.953390545980929,5.957703642375893
-4.5772641990939285,-8.890930910298033,4.632886989086531
-9.727542861234003,-2.318385188629235,12.819362615551084
-8.959090045740133,-4.442376115585,6.02203075374873
-0.5023520369100628,-9.9873741509474,17.635053806598194
-8.625910576439134,5.0590183560919675,8.96773897605936
9.997537598761648,0.22190529815031498,19.993349357091688
-2.8685164970603623,9.57975015885553,19.78753069217224
8.033763361187168,-5.954716303607307,9.577728524351667
-2.1329227745528097,-9.769884361536423,19.970804947549478
-8.958982171242308,-4.442593663093942,7.364853567534682
1.1563173269104419,9.93292153595742,18.98139486725079
-0.7287625165106062,9.973409908077034,19.094772375859915
-2.4232848621281513,9.701942613568715,14.137714787441215
3.1209306407365665,9.500515351059207,4.5726976377363115
-4.7908161198097625,8.777703623737299,14.424046914982029
3.6530200180035424,-9.308890629289046,9.98008313299437
2.362797384736149,9.716850751075887,2.8379270781439203
-9.960467171362493,0.8883094777216116,0.4593542116447691
1.973484792777683,9.803334013113867,14.968507757527902
9.67504519718673,2.528537211985223,5.973885001579527
9.134389056853694,4.069758783764892,10.520993017628511
4.891025432941858,8.722262906741342,15.006802230922155
-9.731777634267248,2.3005443001984895,8.250922812595165
-9.861485310790846,-1.658646274844748,12.585583586591998
-9.967761743041923,-0.8023252669272438,5.0251963147189205
1.5344984455717672,9.881564376177378,8.259448528781979
0.1116440066693754,9.99937676136742,16.25214962133508
-9.920000887407861,-1.2623717336138505,14.314379191332847
-9.964333000394435,-0.8438411327083172,1.8372413286225098
-4.825215328344593,-8.758841078311011,1.457939076090411
-5.4761950183784815,-8.367274832386391,10.802943553407154
-9.670770032230976,-2.544839284454579,13.049851668610025
-5.139611217688458,8.57813479324095,14.855978424806617
-9.83866429773964,1.7890457893478753,17.42796996128877
4.656520377115234,8.849678975957861,10.33050436002698
8.169246187374643,5.76744455803997,4.513038358134276
-9.987351737764609,0.502797440496924,16.618596241350318
-9.093705911939571,-4.1598693233267925,15.870483088303546
5.230874006145801,8.522790454530028,11.637798420618392
-5.299136630154853,8.480515961599922,11.396865844652016
3.3196687570152728,9.43291043865554,1.8714965404440775
-0.5148217207533214,9.986739137268009,16.00686877072401
-4.2077654602712204,-9.071643171517966,10.140791983100016
9.98219115970205,-0.5965397314230421,6.796433034495381
-7.260454764733062,6.876466869640614,0.6141377679853233
1.271440360660645,-9.918842644647768,7.15100024101424
8.192735126490241,-5.7340292244784505,8.086284753663055
-8.6665198196614,4.989131609350083,0.11785548122396738
9.556525093959547,2.9449665751110823,11.14190857636434
3.0849387187985404,-9.512263300669176,4.784799529314025
-3.8656639857100994,9.222615786726882,2.8299237799678645
8.426806168156865,-5.384137610083291,18.122270343926516
-9.706793403959244,-2.4037807331063505,6.157300307741229
5.304356951861013,-8.477251755565817,16.270233352575705
-8.171891527357303,5.763695764447142,2.9565987038441155
2.409514286786684,9.705371754949464,2.2077606564374985
6.85797983705667,7.27791952102551,1.038417167151413
-0.7843116448736407,9.969195315757215,9.497814150711921
8.920002807516388,-4.520348428373608,14.693739537257986
-0.5831830508071552,9.982980393111632,9.163748582123333
-7.180463519741163,-6.959952847661136,10.564498839743415
-0.13985905815269592,9.999021924361035,13.354244108679584
-1.9120986818239218,-9.815491767148869,17.875769205181314
-9.997968070289833,-0.20157992326861776,16.85749016868233
8.774286970476467,-4.7970707895263445,13.015830269218247
0.17673680263543423,-9.998438083150498,12.459629315249083
2.732344415012682,-9.619474725667146,7.251195510411915
9.878192712419496,1.5560555055338972,18.76506564759538
3.912892212816521,-9.202677573993334,7.081042952550522
5.101463853696856,8.60087591756935,2.6933324559813943
-9.061443466595168,4.229685839598459,16.917807460942136
-9.961646401692544,-0.8749862671185051,13.470256879068678
-9.835344192855873,-1.807209065951213,11.404766787810326
-0.44805634014947576,9.989957232944086,17.02297415983805
9.853289222089959,-1.7066609229269516,13.283229061900037
8.943120985222418,-4.4744370644444675,5.825759221256918
0.6300632699509167,9.98013127548224,7.915761649942934
-9.613937561723178,-2.7517638996266007,10.704241889079722
1.3835532337869274,-9.903826555896348,9.908958904367193
5.388949562098234,-8.42372973315035,3.0968201405924933
8.36677458154259,5.476959293408417,15.75492490027276
4.588909869567259,-8.884925785226807,7.173247514312882
9.834078403872951,1.8140843272790927,6.281670411514215
-5.673633559663892,8.234675599600488,18.81860508704535
1.5087902545284746,9.885522341679264,3.3884153781956883
-7.2292886638204426,6.909224660926668,4.954123777688288
-3.476591215910527,9.376209976181942,12.40707884178825
-9.463813201347476,3.230516938510192,0.11214266011345897
5.232744870406927,-8.521641926367828,17.787178413044998
9.473708367751394,-3.2013824768054833,17.02031616325292
4.202266029410747,9.074191987062012,4.170978462487909
-7.307253798287866,6.826715310265072,17.784857676021183
-9.49878781419563,3.1261845852234353,19.30510033930844
5.930447708525114,-8.051694851175696,2.9498219962837102
9.999461903386349,0.1037383377785611,7.30711739132351
-8.949357173174326,-4.461950939550237,17.271729405180064
7.35523632500244,6.774990671828603,11.427948717503453
-8.838750452492048,4.677231065338935,18.270771934116745
9.742289779305768,-2.255612966808442,0.6256430644053013
-3.409116888796802,-9.400953251586799,5.358363652284634
2.8292070957961926,9.591433011239586,8.493199340169376
-6.4259245516754575,-7.6620815485202565,12.263512271916701
-8.78214507948551,-4.7826695268300154,6.308468955321176
-6.268497283624494,-7.791401786918215,10.465568092884531
-9.211445077621839,-3.892207546104962,11.382473173449643
-7.432521779270397,6.6901136014772735,5.8081881255475825
4.787085497947603,-8.77973874527823,0.17254331419598756
9.94525183596348,1.0449717313234055,9.020235326653207
-8.536155203513315,-5.20903583607682,4.558622048862162
-1.432324848633736,9.896890700012118,10.682073306204892
-5.04408433793651,8.634651885964113,9.84162264837251
-9.227485518246656,3.854025299676721,6.883496995783627
-9.7692793080841,2.1356923469076423,12.73518634626634
9.990596726271548,-0.4335632053256166,3.2232838396060237
-4.333165545872255,9.012417897105394,19.93370134773467
-8.675289754410311,-4.973866471571536,1.0345556014465696
8.674923190836415,4.974505767720906,18.765131672342335
4.157304313351044,9.094878825261654,17.63844737802093
-4.139608338807726,-9.102946929498906,16.31738821396921
-4.876262986047098,8.730524571347763,13.87616407186395
-9.894800660571937,-1.4466927412360864,0.3020915894329268
4.01977369206225,9.156496025478537,5.606611129005645
-0.6904897887070294,-9.976132710208466,17.017160222945872
-1.3353791759455391,-9.91043704669229,9.778589143483917
7.558016871073304,6.548005877866276,2.281287484311154
0.6944904057576594,9.97585500477581,9.039981614162675
0.7629811528900328,-9.970850503359008,10.512086853326029
9.817255084972809,1.9030245916896407,12.600852028373279
1.0651918645525809,9.943106470901888,15.044370473096595
5.56422484991972,-8.308995235257742,18.02501690621424
-9.851112443311653,-1.7191810926223843,4.60209265790922
-9.885218332957232,-1.5107807616481792,15.67864170572249
9.100092138498784,4.145880252833242,9.202220120208747
-5.365172296843794,8.438893661208196,12.712025639560965
1.5666429162638322,9.876519122287991,14.880062886188137
9.43058577417052,3.326266970045036,9.95460805078153
-8.864995808483943,4.627293951713259,15.059529657811508
1.8642815362932474,-9.824685967166385,17.63186536548117
-6.8243061084196865,7.309503823009176,16.979441638582593
-9.685230108331842,2.4892403959164637,15.956104265830522
-3.924676617676216,9.197658041407365,2.0609393520816766
-1.0400483896380692,-9.945767911388806,6.841796645887063
-9.460803978734905,-3.2393190759716473,11.91261521963777
-9.528439657564796,-3.0346066783269423,6.9235999433200295
9.726386667210434,-2.3232310259444966,1.3082230456081523
-0.4502395438863416,9.989859075738806,9.07916916098184
7.1197073640830535,-7.022091358692334,4.940961104782002
-6.820444209965977,-7.313107463913106,15.178749651111733
-6.6976556017626,7.425726189415959,12.282521166866488
3.3711111603701687,9.414648668135614,6.837192416450777
2.6349276883306594,-9.64661371037881,16.867044572671503
-5.680925414667529,-8.229646798799116,1.5599436081709306
-6.2669395928338965,-7.792654755586886,15.501816870388103
7.777461008028674,6.285785572909212,3.7351179128694256
8.333461376165653,-5.527514947239425,5.6104694189262165
-2.6988408646612347,9.628928184758395,15.590691081577333
9.394812107189695,3.426004301019179,12.863063737181985
5.266559516618256,8.500785308306385,6.103977964500322
8.331548404945519,5.530397922035068,6.450137906449345
-9.36162128891117,3.5156858282567245,19.236390981176044
7.214436439725586,6.924731536829397,5.717788095675198
-6.554219226373762,7.552629365501296,12.548052210425771
2.133968687531139,9.769655963268955,17.40441021058594
-6.71306321982679,-7.4118002001274155,12.429638121382977
2.027998243229476,9.792202159139595,14.365692333042588
-9.831127539920795,1.830008550201585,1.315083866504032
2.1804908081900995,9.75937804552106,0.674229378886233
-9.24423337522086,-3.8136792346043915,9.433286005469519
-1.4918593538208527,-9.8880916090223,0.17344994775886802
5.560006591459333,-8.311818495547698,5.031508765045265
-9.620941050254107,2.727176801664206,10.636650655614465
-3.436303268502288,9.391049986390259,12.409750634064343
-5.602282128754251,8.283383061880015,10.315732161158614
-0.6425477760325535,-9.97933526621466,17.9758917464607
3.03250779025292,-9.529107854466512,18.18137251862953
2.801693203445341,9.599505986964548,19.571392058488886
9.721685209189104,-2.34282664604827,10.771092076054114
-7.2054222360123905,6.934110642380766,13.231471211617942
-0.7403481784681367,9.972556571643949,12.355494479870968
1.4138687851029565,9.899544184380991,10.024539020252487
-8.896503510279192,4.566423687262278,18.417055931193566
-9.869388797995098,1.610951505790565,8.47735914583238
9.819931325733746,1.8891661541201377,0.8433368538146224
4.6585552939287,-8.84860794551374,12.049301890808003
-2.845783558774264,9.586527835280616,5.3038795016164215
-6.990842432799308,-7.150393141623238,15.170561046877381
8.996464901896834,-4.366190475567731,11.99273680630025
5.207101469220592,8.537335315497497,0.5938393547911924
3.549464446720465,9.348866355952865,6.06746049265217
-1.9737112306673923,9.803288426744231,12.84837908552851
7.633467792803782,6.459889275848879,6.426877171015919
3.847452584903312,-9.23022798239138,12.779017767534732
-6.921297145898965,7.217731348434274,15.495148207629564
9.994916645322643,0.31881225361072857,17.450946181677743
3.685698563330302,-9.296000543258641,15.01463143690649
-3.129839148218693,-9.497584266869007,17.694815183331198
9.880043923250865,1.5442577746715915,10.50642769406416
6.681498428383904,-7.440267384409207,8.523571768250804
-5.670766598465811,-8.236650179880442,1.0822817433497667
7.967733879375967,-6.042782209168589,5.754304351009269
9.90726267277847,1.3587296760468535,0.6652693696900003
9.734218708480844,-2.2901934711856846,3.417532189613175
-8.935702830369406,4.489233222648183,7.364523973213597
-6.73730659478394,-7.389769945531515,6.900888430887482
9.910007089312474,1.3385662067213984,9.036160072563783
-9.969618513037341,-0.7789137978641335,16.877657986651688
-2.0398891977801585,9.789731970834534,15.934868096911579
-7.144073296295951,-6.997300675056854,5.747281473398336
9.947565953140941,1.0227079778270711,18.236297319255826
-1.592160054408604,-9.87243771118084,1.242545278281908
9.972377475243485,-0.7427566837507359,1.9669915751754696
-1.028906327098775,-9.946926750009577,12.747693317351489
-6.679840688366317,-7.441755732221114,12.085719687052253
-6.054177113166902,7.959079059941928,9.317709299691192
-4.051625056782023,-9.142446849681766,3.9495128352752773
2.0657089745005788,9.784316349784882,0.574094493167332
4.61973622537172,8.86893664471611,7.541602325560179
2.363846279886563,-9.716595636593429,19.336857026168822
8.170485012938897,-5.765689434347021,17.48288045552767
-0.1824986759202451,-9.99833457298201,14.135238603267968
-3.579246495584229,9.337504726844749,19.206924979377312
-9.561630138046462,-2.9283492112795533,15.767122561027518
9.99784675480124,0.20750968052196242,15.059177839771724
-9.696579679637988,2.4446559096182967,14.223868561075445
-7.713120645536293,-6.364571462981761,17.588801412568365
-2.2845679025222125,-9.735540534493463,19.714138358923464
0.30358109310850706,9.995390863788522,11.00709286947076
-6.793142016275584,7.338475423867773,9.632716076459836
-6.023125642606848,7.982603428291539,15.35008677500499
9.770506924119811,-2.1300691175937954,19.781608321972232
9.996320097187333,0.2712646577950172,12.196247681930249
9.92588744434672,-1.215219503694759,15.470471682282831
-9.980016958395565,0.6318714348164038,16.14789196211595
6.5922405445003225,-7.519465712631854,2.5757401650844436
2.6780299417526168,-9.63473692588835,18.067725160916666
-9.141980123222293,4.052678056126406,8.876595687626637
-9.670344941495484,-2.546454144981351,14.71280870878199
3.607966938735524,-9.326444905160349,2.915859230878972
9.689100581751305,-2.4741321542525827,17.978770199048512
-9.82739519043739,1.8499469643662927,2.1012644971811145
-9.82608156337548,-1.8569117130042747,2.272116310215233
-8.924271673105682,4.511914793588582,9.05628279421592
-9.75251263225264,2.210994653488033,13.581671858590651
-6.832391753752972,7.301946516049565,19.977693715423253
9.122018692791702,-4.097410763928702,0.8555276614459095
-7.319827151587313,-6.813232013581012,1.2708497377929806
9.726975539569384,2.320764282002569,16.328258783927815
1.2881832960825454,-9.916682096129426,1.4393366844227273
9.826792348555935,1.8531465506976263,17.055323793647485
-9.995904781054062,-0.28616010920557955,14.538175529012303
8.092709796960806,-5.874355125643545,2.9355810135435845
-9.421135640949874,-3.352939491673537,4.267727576560634
-0.7687638185283584,9.970406320272092,2.6072912242297197
3.010088223326593,-9.536213550869682,15.169665001533488
2.214430072232551,-9.751733151352745,7.498636395271627
1.6702431104821671,-9.859527775298716,3.874306418776512
3.9398979295859715,-9.191148149412246,12.645297161636345
-9.940658441348017,1.0878004194044089,7.522724764765254
4.76404222997022,-8.792263737574094,18.090604340260764
-5.488531198055034,-8.359188075882525,11.99532002427211
7.392108754890115,-6.734740392611798,12.631849572267509
2.320985967684383,9.726922644794303,10.429219106377436
-9.914994331782758,1.3011100647968927,13.477833712820704
-9.086500929641842,4.175583893974342,17.824562485851086
8.903472988796326,4.552819866607313,5.229260486844605
-5.321593093380437,8.466442402124144,4.359407501683023
-2.0974948034313963,-9.777551613240314,17.964240393914025
-8.24485656926227,5.658828514126647,1.8888574303511585
1.109819009289917,-9.938224276329185,17.905178765128223
7.025928230305936,7.115921057922867,9.58269105689034
6.399709444428328,7.683991087117089,0.4461829872959422
8.866585453446088,4.6242472248722,0.47836314457835094
-0.3761332544367064,9.992923685033668,3.7502381012443697
5.098864028440687,-8.602417428808812,6.31056946139508
9.993328174066034,-0.36522870289450754,5.390550564896895
9.611796183389027,-2.7592343374545303,17.156902009832745
9.636128495097676,2.6730184484897572,14.565580790177437
-6.1531393117793645,7.8828216147414745,16.163153397675984
-9.50700410238134,-3.1011083498169483,2.4842531551491653
-8.230047126843157,5.680345437554015,8.807693319512342
-6.232123155525599,7.820526898768499,11.044029379485993
-5.07032207633396,-8.61927108532041,18.39271462500365
-2.6778293363323096,9.634792683056448,15.94042197151094
-4.654429859117929,-8.850778648602136,14.440354070786709
-7.932932277337671,6.088397612112249,18.09201054959716
-9.165895046772475,-3.9982956358368287,1.5616020836930167
9.306116405501802,-3.660081617566775,10.99284815216752
-2.919967759801245,9.564193028254987,12.757951085106672
3.0926436082016,-9.509761064961085,12.116934269745126
-4.837095611062746,8.752285761413273,18.531362404084284
9.671926507433536,-2.5404404411055417,10.083091881037511
9.051912351276368,-4.250045033268511,18.273800450791317
-7.6280894472533785,6.466239354114696,18.851733325197095
3.1292129477727233,9.497790602423889,18.09532942026633
2.078186657764228,9.78167369193487,4.301048075483225
9.675610948625721,-2.5263714633509653,4.825167287481142
-5.010826747031127,8.65399418252852,5.33893460533045
1.9287503546521203,9.812233286537236,1.6301826611200387
-9.432426232293695,3.321044319538324,19.728227297497373
-2.1756592176222336,-9.760456288963923,11.339811297898796
-3.6757566704549225,9.299936177179182,8.416976158876178
-9.860978283596623,-1.6616579944247845,15.594872199080589
1.8952293300045726,-9.818762945844576,9.316530558663914
2.6542734417701874,-9.641308650609286,8.77485357270057
9.337334526500022,-3.579690481065452,6.087268583589031
-9.97394860586057,0.7213523463966626,8.638583576463226
-6.040628101170132,-7.969367110590008,8.90710699287804
-0.3505401099944143,9.993854193017082,3.71429875803694
5.780482282031033,8.160026016326498,10.112452458759702
-8.998833819756866,-4.361305983808068,2.491895078073083
1.3936625682616242,-9.902409032443893,11.42120365833198
4.993356446443611,-8.664086299129298,15.573049901739267
-4.501585614236762,8.929486377037406,2.38948355623952
-1.3730609145532546,-9.9052866553637,8.997915560636848
-8.954182163551804,-4.452260300334058,8.18353359138294
-8.451724901657354,-5.344936499782293,1.2135991964338655
-9.062135953281475,4.2282019777020174,1.169780132340883
-0.6047064504852145,9.981699760498788,16.290017377380842
9.297609645572187,3.681637526775688,5.817533361973293
0.8778101484246469,9.961397961296532,0.47993823991354434
-9.659120894699704,-2.588703061684672,11.638600615347936
-6.402667396393876,7.681526554738638,9.827911470293444
-8.449833505015238,5.347926115563107,10.59323279372595
-2.7463692929678594,9.615480003964608,10.657390288203716
5.5785067041078875,8.299413410128656,5.575125792705875
-9.718850456083876,2.354558517488626,18.342599988943086
1.758666553275329,9.844139980434587,15.357772012925363
-4.365582064118429,-8.996760152490866,2.624668625263218
3.9248750393961354,9.197573371554324,13.446247249519525
5.471208283526803,-8.370536417594018,14.296071244228816
7.582762822960191,6.519333399261981,5.077498207004789
6.8776097821978865,7.259372127382363,2.52218253742976
-8.556150245949436,-5.176127217209736,16.294741214882297
-9.963507247295137,-0.8535357831381685,12.180715424536753
-8.699157822657412,-4.932002957876074,15.632280606201956
9.893552766293043,-1.4552022747973161,3.694027072984374
6.124372169581303,7.90519231445118,10.697279607268086
-9.999780163921931,0.06630741461904147,5.455219349953109
0.3081724474775638,-9.995250359176387,13.05261399106698
-6.7593793947505665,7.369585483446234,18.123678251708576
-3.768502112142407,9.262742133449372,7.079651547891601
-5.351007737983917,-8.447882349324962,9.68694578204542
-1.6614289135099138,9.861016882926085,15.848791254683285
0.4758172492358532,9.988673482766849,5.141886623677427
6.61360149052107,7.500684990357712,6.816553941246031
9.79991893163178,-1.990374068723026,6.783168859867075
9.856201034771523,-1.689763640918088,1.8926338341501725
4.971118521075385,8.676864678524224,5.009247151922627
6.361653145003183,7.7155278019505005,15.78964100988057
4.628999938134975,-8.86410511968052,18.99586433233479
-3.050459646821795,9.523376289064286,19.47087027875869
7.641288814417312,6.45063603489306,19.720999134323566
-8.290972025174128,-5.591044882468753,4.550172980910636
0.3127588559059231,-9.995107898269653,10.379342701373364
-9.49519377025843,-3.1370838792173705,3.741755162672793
4.2078596750797175,9.071599470591613,8.814587278629652
9.172114426086072,-3.984007649940419,4.935723144981865
7.075640143871073,-7.066492521360235,0.9419737555505847
-0.33027577255285256,9.994544407528771,5.17536969520795
9.814032488773648,-1.919574512566601,17.15687889026816
-5.2605725814532125,-8.504491525968069,11.1993004882118
-2.103269417504393,-9.77631105056456,12.125468155058925
-0.9184071453506089,-9.957737108167144,8.590633023776636
9.726771258396052,2.3216203149611894,9.756898642780559
-4.749483361794955,-8.800136805529382,1.5441828671996216
8.383136616681954,-5.45188228651777,11.749794239037675
1.590819732235289,9.872653775937392,12.326988782809124
-0.6223717102119521,9.980613881637133,4.822057746928159
-9.01934146012181,4.318735882839765,14.166202038252232
1.922015370988293,-9.813554754200169,9.477628217756385
9.300803280904496,-3.673562076502335,17.33689823788531
-6.0684519880319785,7.948200454753939,19.186395279922664
6.19803521639902,7.84757028998642,1.8420717051246505
-8.822415366516035,4.70797059258676,11.732439850182315
8.345377498542115,-5.5095076374234155,8.973469321640803
5.443015875419724,8.388896124039732,17.891306046547164
-9.546616126106937,-2.9769313967162563,0.4614133292714717
9.607908905856753,-2.7727398826356775,19.751604628741894
-5.173778465208144,8.557570706278065,3.882953088111638
1.847242856400615,9.827903837008016,0.6875787299209235
9.989580934818704,-0.45636909043738616,10.559340219551288
9.981852070094888,0.6021870562727254,5.309164727000518
7.312694209113948,-6.82088728861512,14.20897870472965
7.1550542505009584,6.986071762613676,7.330459642687046
9.601627880136922,-2.7944126487291276,11.847791384017508
-8.804709660591953,4.741000716376103,17.69405315047096
3.553739138951502,-9.347242274183559,14.996196006834042
7.54925435659313,-6.558106331820159,11.454516405862272
-7.256383678882296,6.88076274150262,4.140717454889775
9.934005520251826,1.1469674466201027,5.95965885441625
-7.402865745033078,6.722914454387759,16.001326709507868
8.521798279735343,5.2324902369235,3.387991722421102
0.22460806310681034,-9.997477242684147,6.432845367617752
5.213336122687718,-8.53352954362258,16.865682865344642
-4.139931914010518,9.102799775198685,1.3087769034344099
-1.420332240613806,-9.898618910043611,18.756457903352878
-5.923164669231418,-8.057054070885256,19.781968630687444
-5.229190157416447,-8.523823689963264,2.2410933308954917
8.21105635164893,-5.707762573026822,4.2524618379450585
-2.0444181173197604,-9.788787185426738,4.682808666397964
-9.65067329198005,2.6200200402788756,0.9401214238562039
3.3773796141827805,9.412401762658805,10.383124141337225
1.6845026228672273,-9.857101547288302,14.11662737430657
9.935104699946697,1.1374069637104613,17.95209887218141
-9.405919746549863,3.3953900691177403,19.055593477919924
7.3896183378618705,6.737472880890546,16.16310673255346
2.4875676475643056,9.685659874205339,0.4577010091103362
8.930828231215447,-4.498922882704836,19.980120836847274
-9.200139499828524,-3.918856106530957,0.09320927556649483
5.464880010078171,8.374669335290081,5.182016742050594
9.548597182847468,-2.9705709619057075,19.549126532724237
9.869179086515443,1.6122357638652671,19.997431327674292
-9.918285567513673,-1.2757787430624394,18.96644246789922
2.642399478436959,9.644569715459372,1.2531905748208527
6.519372939671612,7.582728827637021,9.926159134320532
-9.53562261286137,-3.0119597250107577,0.8161467067650618
-3.3313781994583422,9.428781431986517,3.4750578785772457
-3.907019218121284,-9.205172504045263,2.9230094335339785
-9.91430716422289,-1.3063358884447238,8.958006665663007
-9.818811946363715,-1.8949754515415738,2.8410600816611997
8.21463328889173,5.702613429738319,5.329254523666648
-8.59402510348242,5.112996432691304,3.7791498106006416
-2.3151935294960007,-9.728302982585394,6.255125238663048
7.201403679222852,6.938284013275586,19.429688520384836
2.0201077568060986,9.793832990759636,13.96936901039448
9.239436001107931,-3.825287228618354,8.274669139593671
-9.855552449608844,-1.6935424154738854,7.1604532967555805
-8.39757824518489,-5.429611368781146,11.608153588675806
-4.3911122785322165,-8.984327073149307,16.902320661214507
7.442184220841291,6.679363294735578,14.622142164284643
-9.357455504699454,3.5267586361374232,17.943911576074537
-4.952648082099275,8.687420616896501,19.617384818384128
-4.64088199420144,-8.85788994715428,0.5322208935331063
-9.195086557914085,3.9306975452796804,15.28592073406668
-8.808278558298595,4.734366783363667,6.923358093633841
-9.288543876518563,-3.704450384873512,1.0945795674143444
1.658458948025212,-9.861516816277053,5.284058503313549
5.151684692832465,-8.570889383584161,12.70022139862615
7.2549079225965585,-6.882318725156928,17.99224772564212
-9.851692593463145,-1.7158534447625151,8.456525448362031
-3.783556272625159,-9.256603152986457,13.239456980009066
-8.005670362316112,5.992432064690715,18.787922017663195
8.78640293947935,4.7748427602496655,17.496213792164376
9.328117315143682,3.6036408471040238,18.188280522606522
8.263750300330665,5.63120155684245,6.777558658039342
-8.223396344995447,5.689969468557412,3.4331283217170583
9.9847458529641,-0.552132458488208,19.011804263077178
0.4363027533431865,-9.99047746143422,18.976066884581346
-7.1542574375012125,-6.986887756215824,12.436868207558415
1.4398361203605572,9.8958007228574,16.536212229187875
-8.289194145149242,-5.593680400597045,19.717900476213103
1.4379127017046323,9.896080388834585,15.370507634276736
2.3297662730973787,9.724823346094157,18.44418702959463
-5.375179669861971,8.432522962714216,15.803470261749762
-4.858255220951527,-8.740558117654572,9.200758164098826
9.968117067123794,0.7978985750804052,6.191525785937739
-7.83626271549816,-6.212325382149055,14.495418552639176
9.816539079990962,-1.9067145803738448,9.83119955647997
7.509729815303592,6.603329319452444,5.420209570870416
2.737241544604692,-9.618082383016384,2.271736351122857
-7.889954701093486,-6.143990137906538,7.043875340618431
8.57769397580054,5.140346881049479,0.05245737036848164
-4.899124121029087,8.717716607389288,19.50943075424257
-7.102656222347097,7.0393376525887765,7.058240427484781
8.224681788097111,5.688111240521206,16.669447043516254
0.515734949930559,-9.986692017951697,1.0429926128344635
9.402644166685853,3.404450421828536,1.526442673461923
8.004594929249526,5.993868535314465,13.004474323675154
9.65585972091857,2.6008408351804873,4.002989135720869
4.703008405847218,8.825061582478074,17.10290818158176
2.374751550443805,-9.71393612670295,17.615675899583522
-6.633855018877025,-7.4827780662344985,11.922973487222157
3.7159386922144777,-9.283953879447234,3.224661756317946
-3.2425363590415044,9.459701790241269,2.051841808846211
-7.111893128394097,-7.0300054146708035,12.34978731957806
7.176670589108626,-6.963863816547766,3.8985485339418435
-2.4958108521238356,9.683539032317725,7.293822728839007
4.979727385716905,8.671926842630828,13.019921134920205
-9.90256071019179,1.3925844250765917,3.539074466201393
-9.608026181357758,-2.772333475313509,0.47186820621819114
-4.282727246144758,-9.036495301560741,12.013864057517061
8.840091186321601,-4.674696548174991,8.766407987753668
-9.59196330210416,2.827408709593829,8.021480759101294
7.095273536629526,7.0467789407930725,15.792771188150931
-9.99857621364406,0.1687415181608128,15.987812909352447
-1.0086801060280701,9.94899816281535,15.882004678452022
4.212783211165004,-9.069314065337371,13.702110649049724
5.151258428310745,8.571145582986997,14.711411698331432
1.8352386772904519,-9.830152541918014,14.547480034376118
6.3271767829068795,-7.743825537668327,5.226210978419454
9.640281633017745,2.6580011354588873,6.856358779341971
9.193887859484523,-3.9335004801351072,3.7585459840759583
-8.780596094541963,4.78551274415965,8.330609141342432
3.786621275225831,-9.255349767459203,0.45017631353490684
8.918522045183439,-4.523269230277698,1.1530621016732456
-9.362390496892562,3.513636888424278,0.7999614068967231
-4.613173256480093,-8.872352140537302,5.333300031050459
8.770010319359004,-4.80488490999905,7.885071421124044
9.999341352398933,-0.11477159145310277,7.427407293460931
9.927157281931132,-1.2048021828506505,16.90343916191769
9.099399363198675,-4.1474005387736,2.0203518929698183
-0.8621724054854343,-9.96276360972293,15.020249006598071
-9.98606476701015,0.5277409109388028,9.07904520193565
1.4976112800514028,-9.887222079728097,16.011106403106638
9.966582627885694,0.8168419195456872,8.301566969744714
3.94441653635878,-9.189209878313772,11.582409356695848
8.621448150186158,5.066619365380794,10.964389237837189
5.025321778783002,8.645585059421325,3.039752755467693
-4.451697025695578,8.954462216761716,6.2375117940671165
7.457508293329443,6.662249624182702,3.237681810235995
-9.358013644356468,3.5252773837016225,4.746414912121175
-7.381808047360715,6.746029198863623,11.731965929130357
8.714135364161109,-4.905491295994392,11.59603499377376
-0.988685746572461,-9.951004999221157,11.087172917680512
-7.151514245429402,6.989695558278653,16.523643144343907
7.777570007401689,6.285650704578302,7.306091910722216
-8.244070033142393,-5.659974318726507,6.70897733539168
-9.979056540581066,0.6468620872227999,12.651641675456606
9.753293838516536,2.2075459903601975,0.6595566813524112
8.569220027067924,5.154460992935926,3.3582974522930376
0.027427143010337086,-9.99996238752058,10.3306621657854
9.962312166670154,-0.8673732148365041,19.409261553937842
6.585508883100276,-7.525361968078834,15.966912389623012
-4.270529541245421,9.042266167136985,17.586183473475504
9.731360721940964,-2.302307212225298,19.3965290682568
-9.619033115413268,-2.7338986675776624,6.037233212119939
-7.0378220802204,-7.104157963274902,4.003261828811113
5.442422019592039,8.389281409075494,7.920403265236981
-8.8483508137328,4.659043665508415,17.77865993442194
-8.943842116347374,4.472995439059927,17.23564034231655
5.871279625785899,-8.094941355922932,4.227030187605834
9.88002907722948,-1.5443527553962555,15.54797591721229
-3.30823834269361,-9.436925297358872,0.4641694916359418
-6.940042636911063,7.199708896744127,19.834474155217038
-4.361036835114308,-8.998964258334187,9.043236491268205
-9.9345214940417,1.142489686790857,2.7362642799483416
3.626311720427835,-9.319327406325401,6.18260943458308
9.998089673351702,0.19545557965451318,9.29095263074588
8.242214064346143,5.662676691944775,13.062718399339266
1.059103641246583,-9.943756809028377,18.299615801271788
6.826167441023473,-7.307765600175681,3.0663565719109376
-8.365361314768755,-5.479117636387302,8.697504632833141
1.671623245739084,9.85929387554224,9.201132673875744
6.161319248308848,-7.876429719131562,5.42830870543213
-8.499121662166239,5.269243870964466,13.413918557033108
-1.9685648772351672,9.80432314461922,3.4236086247975472
6.242002205957299,-7.81264414016306,11.565523239128954
-2.883339733231463,-9.575299054482253,1.0169936471123586
-0.5204533440896635,9.98644723195521,9.864493184751877
1.911171520610235,9.815672336565049,19.915883255367802
9.977977936290069,0.6632920193312843,9.615027751910104
4.112427354388447,9.115258704769582,4.435166265953625
2.6019262374343026,9.655567298452793,13.086661550552233
-9.429917120153997,-3.328162121505884,17.210546856845856
-9.464036460092295,-3.229862827124971,18.322511630098465
1.0122254911418773,9.948638075389143,10.67774948856604
-9.984128042206216,-0.563193782664097,11.785480476465349
8.38243913071137,5.452954632116317,8.068380636588365
-3.217430796398353,9.46827012026946,1.4441495173236074
8.041334428582296,-5.9444882544838995,12.590185197686218
-8.39675006933593,5.430892032908319,6.172161357149064
-9.867942761892937,1.6197856796517178,8.770669446243453
2.7198274143532872,-9.623021294589986,8.485171563386588
9.630040282374981,2.6948699708585555,16.543386762019537
-5.57114538894403,8.304356631024927,1.3022783849726238
9.248539773594688,3.8032239029850885,7.959835543098781
-2.910568983283196,9.567057446966116,18.751358904492317
7.785961212388494,6.275253620307462,10.171091923535089
7.635758260025193,6.45718172227304,0.8852676183579677
9.972055020357695,0.7470734039964805,6.321984388693518
-9.566852001964023,2.9112441966480516,19.171702511458534
-0.7415685378959185,9.972465898843822,2.1784594663455548
7.966933790326537,-6.043837024651909,4.4124864515630176
-1.0146043691486826,9.94839574876796,4.408019573240331
-6.611801932242112,-7.502271336655284,3.899917498579877
-6.453669197394999,-7.6387272428458255,12.136690221694927
3.555691698660053,9.346499694756321,15.265503161630775
-8.978061588209632,-4.4039085047619615,19.021667275210234
3.8469114952710997,-9.230453507144222,2.1607417719701605
-9.960510353015929,-0.8878251559076751,5.985508733027847
-1.3638752033210113,9.906555628964393,16.95946504117242
-8.917298902097968,4.525680091504743,8.72366738444287
7.941392618651644,6.077358248155624,8.906702188923354
-3.743323680380114,9.272946016445122,3.9855930350046065
-9.745588998159919,-2.2413154795664876,1.4308532830280107
-1.7036627188256936,9.853808062900528,17.295681704551107
-9.762565364293724,2.166175779546186,7.000415251648837
6.003177586321221,-7.9976158239246855,7.803828410033537
-5.384750962639268,-8.426414247493145,16.933320106491806
3.0658067410233896,9.51844677595539,13.126103253582585
-9.929746667025453,1.1832713673105182,9.214929795453058
9.92493029284019,1.2230121349615224,7.320991499119627
8.848900483729436,4.6579995952182065,0.20792304497059266
-9.062055911708082,4.228373523362924,0.005358378191195889
-3.1774228396548976,9.48177114773603,11.578737442007174
8.544552467737402,5.195250054240189,8.171600990980096
-7.095744622955317,7.046304580828215,2.1949942685467216
3.693715707763243,-9.292817886422991,2.6497657425253984
9.969215872711,-0.7840503066047735,3.950131955846674
9.056300102963052,-4.24068726093677,13.356907706890986
-9.972604595955323,0.739701002250758,11.261267287571634
-7.3832160603314065,6.744488164899126,7.134395580669111
-0.5325748991116257,9.98580812838081,2.8565999119403274
0.9023962263864045,9.959200823891623,4.992209251141604
-9.1464246301894,4.042637317923128,1.6022524317372144
9.348268882886385,3.55103772061888,1.9185673202679188
-4.6593419181487015,-8.848193764253944,18.0719097062379
4.217024747597976,9.067342624945097,12.284394611271182
4.956029391079923,8.685492080173233,10.36834525594915
8.220332590980075,5.6943947960842,13.769828998433782
9.001011480050483,4.356809880635076,12.873252054265292
-0.18951176664160016,-9.998204103252963,5.781077283336121
9.124675681615653,-4.091490401471318,15.334205959370617
7.506599031498723,6.606888146495478,0.1242051114036169
9.40582507437317,3.3956523188178345,11.602043527296102
-0.18311081462654144,-9.998323380925765,10.872996800919212
9.430486319022698,-3.3265489304571676,4.615616841428151
3.0997735708355383,-9.507439392893835,13.489667321101038
-5.555030712315029,8.315144844513341,3.376726516352544
8.192278073764555,-5.734682202364532,14.266648624223613
3.088413131329484,9.51113580652866,13.22997298307632
3.4314782757861835,-9.392814106688553,7.787719535198416
8.160558970704654,5.7797298626883755,7.526029518524002
8.023967745613291,5.96790931711915,18.09396745158782
7.5389477973447185,-6.569951758491932,18.792769023092728
5.152588025351501,8.57034635478662,4.95691120401871
8.586785202793765,5.12514583998173,8.362146481864718
-9.50862554543318,3.0961331103063983,3.2377203649314756
-8.614163213694816,5.078995188797386,13.33289152798816
-8.587474512526667,-5.123990778358688,14.94701460151938
-9.96636994720488,-0.819432776651876,13.320961301347587
4.022673764334922,9.155222323118728,5.794266698337072
9.479451639433345,3.1843361342114096,2.1008044713419727
3.04997508262705,9.523531487602385,6.582051196759013
2.7751029970479006,9.60722662144366,0.9014198125725992
5.142194159795689,8.576586688360534,8.738091247136367
-3.844431542055201,-9.231486668920184,3.2407678138433704
9.889445678468775,-1.4828567606533303,9.265167970677046
5.7938171295109,-8.150563359043721,13.457303770317457
8.95666925523492,4.447254867030846,17.317772873929545
6.0189157881947,7.98577815460839,2.212564092371696
-9.036909145154864,4.281853932844555,1.679760732231672
-3.2968664413752724,9.440904176387638,10.342025621118474
-8.01683083624133,5.977493065080891,15.652522573381813
-2.9790593691790073,9.545952297958898,6.410682978515913
9.998245730553602,0.18730272679985344,4.370320615049776
0.8608992141197411,-9.962873709082537,4.44261754856911
