x,y,z
0.22423409075827141,-9.997485637526157,13.649760884481854
1.5266340615477725,-9.882782424101128,11.526767587160043
-9.987980010168926,0.4901584605675466,6.399509640415914
6.262964021349486,7.795850285073583,9.760092470436124
-5.656363106313691,8.24654815116806,1.1786091994913406
-9.998716692842654,-0.16020142405628987,10.718083753346484
0.26097840138997475,9.996593933635992,8.687505766937583
1.527420963359327,9.882660836064874,18.092038463870875
6.737153933001845,-7.3899091254925295,2.875623891451058
2.82337792876819,9.593150528963081,9.859449234584563
9.718793324181513,2.354794326866965,3.152135589837499
9.873191287514958,1.5874803306305045,18.83955453086569
-8.520733236212724,-5.2342244045607975,16.27162032942755
9.99425207513272,-0.3390065761977211,16.507246716828845
5.033800297391346,8.640651281355058,8.81495115632508
3.635354673144573,-9.315803583183037,8.22705156251242
0.6292886742609698,9.980180146893487,14.995352897636185
3.8207052943350335,9.241331671022323,0.6037419475000783
6.233541841798469,7.8193961471809175,8.831885112677778
7.095950362956592,7.046097391212827,11.77337452875463
8.689362421139325,4.94924041789159,8.490780957779743
-9.99538626232077,0.30373255836219437,1.6253245545485817
5.5226858837647805,8.336662439445728,8.220823052752165
9.80078572006478,1.9861015254448353,6.983322505956555
9.877936184823753,1.5576831284152657,13.427860068199095
9.779080408022754,-2.090355561483625,2.728375028072556
-9.280648368144098,-3.7241866047318695,4.998371746799668
0.4226545476004285,-9.991064164211572,3.1254355052079785
7.263752260616463,6.872983565846002,10.241556257988254
7.8506929671634715,-6.194079425978488,1.365166128446642
-1.1924196410213825,9.92865224487727,15.638113217270638
9.978493568195294,-0.6554892138587556,16.95267126138453
-9.781395664780545,-2.0794948542885057,3.151536464821041
8.38263296288994,-5.452656656114616,0.4952151857500797
9.846939044734333,-1.7429261169901877,1.80480069348802
4.092578768781832,-9.124187581440673,10.510080531843759
7.754342438733708,-6.314283280219012,2.632210881073971
8.491584929560926,5.281381011066496,4.423345329215602
2.8843725691516804,-9.574987983403705,11.156043316320503
-8.221855577285236,-5.692195610330311,14.293490150626836
-5.1146917922616115,8.593016226574445,14.866810769810058
-9.854670562775492,-1.6986665650345167,15.619169371753692
-4.388931191939908,-8.985392756714475,15.022636069754967
-0.5826944342682963,9.983008924982125,19.941764424367072
9.025765078444216,-4.305294966519354,19.97721522584434
5.624288314193912,-8.26845698778326,14.273006165146125
-9.274246729782309,-3.7400999445365297,7.437221562439788
9.993489036798916,-0.3608003206482549,10.181046979458607
-7.15533727506953,6.985781880362466,14.904932996823723
8.008837947574248,5.988197953432626,7.437446744170179
-0.8315009699019846,9.96537034620651,5.4076643272872165
4.951460794253776,8.688097375315712,13.77315757914317
-5.610107240497512,8.278085331169123,18.55852040883108
-3.842979734569737,-9.23209113688152,10.134368572345348
9.492116272030728,3.146383428358575,4.406008484445307
-4.456261424127358,8.952191581944302,18.467982706773405
8.662238585147543,4.996561086785701,4.668707107357557
-4.634606665678406,-8.861174925169307,19.01544032649636
-5.583890045009387,8.295792425395241,17.166004997576323
1.2116074027801664,9.926329004296013,1.4768199608128851
-9.79754758716856,-2.002014304935787,15.59800186308177
-6.668282889622851,7.452114015765131,4.344569499438129
-2.6404435867965614,9.645105373449525,11.547883111216407
3.836843763776751,-9.234642923923342,1.151626168237716
-8.774921855226957,4.795909343874246,5.617666946656481
6.500426745858116,7.598977044427261,3.8358423172448064
9.418490400518191,-3.3603628636423584,19.31512482484753
7.89905984135279,-6.132279643226298,19.816635759221132
6.0005128928469755,-7.999615304674172,5.761217466911908
-9.525492528123683,3.0438449527957028,13.246359273330086
-1.9992926258401944,9.798103336680065,0.6913050364390849
-2.0766267902871904,9.782004966971828,7.908302274840722
7.222214726207063,-6.916618714990573,17.187785225304623
-7.238660608187705,-6.899405235197568,15.31229667640019
-0.3672894541912331,9.993252646503034,5.064202623109592
-6.199914679572894,7.846085518653014,14.10087414542517
2.5781392315827234,9.661945875576723,3.9179449487144624
-8.886170407041403,4.586499263820025,10.7868554256207
-1.6192631066094678,9.868028526082272,14.402360518310571
-9.472393064427887,3.20527216207586,11.280441774321028
-6.198818966289234,7.846951218350531,15.139065466175074
0.4294381768153405,-9.990774887479626,15.06721389857056
5.365060041898202,-8.438965028178945,12.201854089294553
4.8366452894671665,-8.75253462397465,6.862652218534164
1.0413531483196423,9.945631383702333,18.004596039692075
-8.018760264488279,-5.974904503058092,10.657223948349648
7.185542720960422,-6.954708894357312,19.745226272416293
0.6911527953155092,-9.976086798616357,19.273509012531097
9.99244957919691,-0.38852465456841095,0.15002753081876374
-8.559260733117455,-5.170982082981304,7.417566337374386
-9.931034660924126,1.1724122839358184,0.3263187706036219
-9.663713445455151,2.5715058709109204,16.66393180156805
1.4890813662678402,-9.888510336983721,0.8980566213434105
-9.947820358660246,-1.0202304209465272,3.442669162798595
3.22351566611875,-9.466200227667223,19.688949391781104
-1.278556102558977,-9.917927923342113,11.78132470583487
-8.743118227558538,-4.853646429122504,7.331189586706081
9.921632244370214,-1.2494853370381254,16.5529040339411
9.308073890297619,-3.655100607747994,8.110267523238777
-9.879894611503216,1.5452127573864112,0.4127454318641788
-4.645848555861657,-8.855286059523891,7.2467064036755975
-7.034635836208064,-7.10731304023801,0.34904313228997896
-7.43583716057228,-6.686428472768729,3.677446988091282
-8.039114292008033,-5.947490344677508,14.775110418500017
9.95752724512323,0.920679728585651,12.532332190421922
2.395730469762593,-9.708783421018882,5.878600665937954
6.034399192193707,7.974084674070871,18.735253652029442
9.925992156132834,-1.2143639143145983,15.4015017169068
0.8293235691831573,-9.965551786910613,12.277325047751024
-0.1978021820368978,-9.998043523449047,11.625317935692443
-1.9549988225863613,9.807037249021029,10.104166173107231
-7.607464626449348,6.490491657595894,12.57384675810719
6.095790389024391,-7.927252962601727,5.964769807494235
3.6683844504152825,9.302846635517076,11.453701863525103
9.91991107551368,-1.2630772952994707,12.86249211157286
-8.196820873418142,-5.728187110168158,17.218972146592023
-9.590785619761775,2.831400924590291,13.786616542349474
-0.5736363397878218,9.983533510219457,0.8455397134629639
5.581591196337703,8.297339315525518,7.860997181892557
0.2001394200446682,-9.997997010028769,17.370535511966978
7.209964018386388,6.929388057655135,12.080533813075327
-6.810509584206934,-7.322360220818522,4.816436833597737
7.277187921682473,6.858756151994232,15.133840862803105
-5.164335095069584,8.563272915529005,11.302005879508503
-5.661255255033215,8.243190458636679,1.1194097120083857
3.4184343249678535,9.397569194524804,17.16054352870097
-1.4528598921169604,9.89389701451748,2.4451790047589905
4.555985599920094,-8.901853470672314,1.8791644390534024
-5.262148981532344,-8.50351621955048,16.705681472795607
-9.790218537626952,-2.0375526951481753,6.9970881328948975
-3.63009328963712,-9.317855048697181,3.7615597653177724
-9.966097152111567,0.8227439180411542,2.590051379929974
-9.559913993346363,2.933946904737781,15.048289291534005
-5.164842124378252,8.56296711603215,12.995659343264643
9.586038402472388,2.8474317808025895,18.494303698554386
9.521383824995176,3.0566730373267292,10.078824262611096
-9.997178781355057,-0.23752139613989343,19.01021675637803
0.5651004780528485,-9.984020304952532,13.523584306428662
9.647430822467577,2.6319343695659643,9.765855160328044
-0.46715863537674823,-9.989082180530549,4.386295751586296
-8.287797671190347,-5.595749258268445,6.200792883746216
0.9884958237028714,-9.951023867247127,10.91351996525203
-8.838082583955664,-4.6784929452954795,11.511738559476804
-9.948241096983258,1.0161196171186475,14.664979121783139
-8.149676552479807,-5.795064459517327,19.15812304238235
-9.284629345124507,-3.714250654392195,5.294311258912547
8.423000882423565,5.3900886945106805,9.380682594404009
-5.7315702302618545,-8.19445560702943,8.604955582015377
9.353106139009581,-3.538277201184399,6.654300718965631
0.1457599247364484,-9.998937645787219,3.8011171165796576
-7.335202991103334,6.796675443134585,16.64450184761945
-9.876610648921577,-1.5660657998976026,19.974684130956046
3.7412789797745805,9.273771163636553,1.9324086439315313
-6.3805642833005125,-7.699896065965424,17.58908965667971
-2.62097596743857,-9.650413720567085,6.47804089039318
8.603708659998,5.0966849317841305,0.5088251450268055
5.191323367597365,-8.546938732261836,15.077807442451125
9.682618500020444,2.499379719662826,12.17397072369113
3.1963689889841485,9.475401062026897,10.108071767474714
-9.817467163915687,1.9019301999382796,15.879314172048048
9.85524362865429,-1.6953386151058574,9.042118679033441
9.857214408685284,1.6838420653990247,8.04150174260698
-2.6961395253083036,-9.629684920082811,10.505729841565174
7.890266282659938,6.143589991911873,9.219693857663714
8.201061000374356,5.722114859747117,2.9525338359774245
5.639006942348523,8.258426042784738,1.383179314976588
5.834069772633683,-8.121799670518964,2.0588468371678914
-4.2078662402568785,-9.071596425332558,19.7689753203726
-3.802129301724621,9.24898982446013,13.559515520958314
-7.519713521858515,6.59195786919017,3.120109862973419
9.241371003210912,-3.820610158209361,11.974405975345272
-1.8370634855113468,-9.829811684371217,10.03430934941758
8.430764646246473,-5.377937102607335,19.477416365154646
8.633093051989459,-5.04675186190993,3.5080981287759427
-2.1538041503319234,-9.76530223198509,12.456223737186733
6.093348090190185,7.929130409557887,18.797365594396208
-7.142682226353944,6.998720641183462,16.988914510329955
-8.785952771044338,4.775671042374917,14.73002800984881
1.8428189747277879,9.828734314568852,7.675177418488206
-6.872299019801032,7.26439991895007,8.58519214438349
-9.551663587982834,-2.960696320462961,17.53834646967248
-1.7630454821076467,-9.843356674835054,0.20304308122790493
9.349189045681166,3.5486144039773144,1.7134727443962894
-3.570367223222978,-9.340903483675175,9.602714231015174
-7.208284692333527,-6.931134957153132,8.907250110834447
7.642331670380246,6.449400486859464,3.8455833561121966
-6.767914464415858,7.361748012690369,16.83523552210811
-8.853808196729268,4.648664368991334,18.657853765607616
6.066443741908803,7.94973334938069,18.37184988019119
9.210925688572347,3.8934365231242722,9.770722898482028
-2.2462852129163373,9.744444711846509,8.338721686910409
-2.7005287362351145,9.628454940683286,13.37615023064372
-6.306443779666495,-7.760719480428716,14.717108880079335
-9.565697083129422,-2.915036760284382,3.1220489799398154
2.270920265659911,9.738733036027588,4.020292513060131
1.4764174575245892,9.890409065914142,2.3235654726714294
-6.3155110185652585,-7.7533425420511906,2.8821913866721305
-9.15785928067047,-4.016666951022671,10.490430246751188
6.24047519384669,7.813863919661266,6.843840015431462
-9.993449795566047,-0.3618855944921243,18.179966570867137
-9.760311401121724,-2.176309112496038,14.497121890737802
7.166976489982,6.9738402614374015,0.3637359917890226
5.734038825114858,8.192728407073886,10.560378737553243
4.175250719647158,9.086654028193541,1.8658205291309327
7.003073472949901,-7.138414525121486,6.484111911179415
6.526588639889656,-7.576519037504181,11.649420372960579
-6.160489858015361,7.877078437421446,9.508162839608683
8.789870368656171,4.768456658314115,6.355778794692566
-6.735980051537821,-7.390979146587043,9.338334216241426
4.752183889632155,8.798678780312452,0.8505944472508897
-1.4346965158540241,-9.896547170978184,14.188076437820314
9.966265039360646,-0.8207077221628561,16.905883286215737
8.271681456144238,-5.619544989416806,6.07825054322102
1.6585974325485051,9.861493525665548,15.358755121063137
9.952035808626771,0.9782552140471762,5.768362225861374
-0.012269311832721855,-9.999992473196524,12.268238291054336
2.9824495661315713,-9.544893639296438,8.12995166916891
7.02892595721986,-7.112959994820783,16.27599046638799
-9.005732664482146,-4.347042578107477,14.83481463902953
9.95239879486896,0.9745554001137471,11.33117555507869
-9.991195880511647,0.41952935206860176,17.46564056806774
-9.761274074244184,-2.1719872116309427,8.060862823007595
-5.389544072851425,-8.423349374612933,7.165528396696734
-9.598150052889373,-2.8063348984431173,9.758036102797181
7.405255012351598,-6.720282598376465,5.160193821403601
-8.843647464896792,4.667965243724994,5.873453094321885
9.354123509447964,-3.5355867080292196,15.20232876130616
-9.995920698981413,-0.2856035358235974,12.04536804947434
7.2832015071233265,-6.852370086812044,4.8469538040523386
-4.9347205859079875,8.697616497582308,11.124860426413434
-9.781317990920687,2.0798601781108466,16.438309857468543
9.964070049633202,-0.8469404028634984,17.92800818917979
-9.166730707704716,3.9963793779399124,0.03478592929134772
-9.689921405098573,2.4709154503973796,6.2686359840305395
-9.317774635512642,-3.6302996903557796,17.94961235278221
6.068964525042409,7.947809106525947,12.168467511199887
-5.388455117529604,8.424046025893318,19.905531614629545
2.5622542147349288,-9.666170562279206,0.19440450798058784
1.5423690337148168,-9.88033894984568,10.434104755423723
-4.250802317548112,9.051556753240163,11.085116274057842
-9.99996218927197,-0.027499329645401322,14.088737247703072
-8.031433844962258,5.957857869569797,10.463360136794082
-8.522461251645918,-5.231410346569451,9.024254376360348
-4.445166134622361,8.957706069949298,14.339575797445082
9.996099198765219,-0.27928624822094644,17.727284547927546
-9.430216251781465,3.3273144493174596,6.400731591670494
1.4049286772715992,9.900816906285051,6.892030953693502
9.98777650205898,-0.49428791702661123,7.634817832125176
-9.278306073337136,3.730018285407622,17.675739235739854
-6.871533054438711,7.265124464299025,3.9842655100396906
2.572669941002914,-9.663403612323147,16.25926979557115
9.790352904794933,2.0369069688067274,10.896333635721863
-9.284202698089207,-3.715316979854224,7.097467785085685
7.929452843317131,6.09292849175254,14.757453485407662
4.134059771691597,9.105468126575438,6.903344639585365
-2.442101204760814,-9.697223401866422,3.0943479154379516
5.065323177435942,8.622209757836458,10.140884163960823
-5.069289920428503,-8.61987817214617,6.124539026783382
-6.6843153551649115,7.437736768177977,9.4599703176495
2.2932976809840984,9.733487851042552,13.301971672984813
6.2036574532894875,-7.843126557836855,5.59094680286397
-1.0720317893420364,-9.942371339003595,0.2798889443252395
-9.979483528403534,-0.6402409751980448,11.977951707312972
-9.67505047909861,-2.528517001503796,9.06896536212728
6.889303781805538,7.248275201866987,15.096237369081038
-6.328954082123475,-7.742373035857457,7.375186523039341
9.839117275232429,1.78655289432549,12.729721419135373
9.927792500630929,1.1995566115929173,8.7429075745243
-9.926342737573748,-1.2114948849322118,16.317219801434124
9.543729594340894,-2.986172371130272,8.975994168676305
1.0064879053496665,9.949220175289359,0.934199438604566
-6.220998566062291,7.82937908400474,14.160783756746088
9.365256766658522,3.505989973539108,13.088844516309306
6.478192126673289,7.617941110950399,10.69720496251695
-1.3488273331427383,9.908615686631864,13.333763430092764
1.7586686897945794,9.844139598742808,18.68799289629353
-9.40083056572059,-3.409455187359631,0.27185335148218526
6.848746608044016,-7.286608943727224,17.79476568344792
-8.522047775275526,5.23208387890728,11.960224583775783
-9.14754049046225,4.040111752829821,7.214730947605624
-8.961118701185507,4.4382825082754,16.608027627441636
-7.4798540273803225,6.63715177836716,5.316725456722358
-8.796609708592612,4.756012787482199,9.068232894346462
-9.95681364551381,0.928365245207939,16.44726014764704
-9.933319285089183,1.1528954768214326,15.929204349764934
-0.8443892329081615,9.964286568708708,15.503344465917747
8.466741579765799,5.321117083983864,17.58122117147464
9.4314787581676,3.3237341100384885,4.10449053776037
-9.937450344674431,1.1167276512785054,12.531554856814191
4.837057916437015,-8.752306593866214,1.7758237479336159
-9.745754124073763,-2.24059736523527,4.436076993433908
-5.60662910890685,-8.280441415477704,13.37951065120997
9.74496948364026,-2.2440075229196728,6.683916419043037
-4.606083094691281,-8.876035067799089,1.5618003669158953
2.156647330436091,9.764674715120975,5.94999890847002
9.866376895055545,1.6292964631134834,17.112088220220272
9.999992656945773,0.012118623297004184,13.781306491308625
-7.694975200867734,-6.386497996400733,2.4446642449488
5.0350718924027,-8.63991036054983,6.799178233438643
1.9928138989709767,9.799423083226282,18.535263332874674
-1.1014331375026736,-9.93915715961927,18.20293423494435
-8.399034373156137,5.427358620778774,14.02643736302112
-8.885873665364562,4.587074144068369,4.8638483153288785
9.997842190938277,0.20772945167820037,14.399346910040085
-4.0215649733045815,9.155709429939861,12.63440859376745
5.754090342418248,-8.178657856353269,1.1803120699307157
7.1396804757374746,-7.001782823279591,5.157114195580039
-8.887912800417414,-4.583121867480317,19.556342311955625
4.450643415720909,8.954985940028052,15.18731469216589
-5.3271799144574015,8.46292822603392,1.7015605251324706
-7.112168092674926,7.029727236638466,6.695159976859511
-0.13925785015202846,-9.999030315544156,13.405394787712556
-9.6408588642084,-2.655906692716123,18.168610333488992
-9.96556736040821,-0.8291364092635999,17.160659481151793
4.127730643682251,-9.108339021644206,2.2120303276995745
-5.453517274272482,-8.38207309316804,2.3411818066983447
9.812172062660183,-1.9290617959907412,15.935497040328377
-9.923177488635236,1.237153397539245,14.260226028439378
-9.963091501175366,-0.8583750574237264,16.665125721271565
3.929380651945065,9.195649389364505,1.5793366813029541
-5.836170014900675,-8.120290607926187,6.673362094255076
6.24208732681283,7.81257613111339,7.980755745628654
-5.458085677619722,-8.379099040813545,13.890463759523605
-9.351391399017578,3.542806641969058,11.671238968442715
-5.72418251403476,-8.199617951223013,6.272207898449425
2.127735993417668,9.771015276946144,8.894066052008418
-9.967575506785362,-0.8046356420967977,3.980061982108498
-3.409339588140145,9.40087248997349,5.381916710506238
8.811658048953282,-4.728073860285689,7.5683280685514775
8.48845383434474,-5.286411968641685,0.32877135269648194
9.016208820585065,4.325272072783868,11.708732539851159
0.7051824322684573,-9.975104898557204,9.13930777652915
9.68626736748771,-2.4852010955942223,4.074822569009844
8.28573860918504,-5.598797701315913,8.925891966167116
9.673658315187833,2.5338379587095354,3.0904135820056022
-8.204784454042684,5.716774620596782,18.31097721668909
7.3200218817744345,-6.81302279831379,5.35264296675948
8.984892484364416,-4.389955244010108,13.313786646544886
1.1760503947708958,-9.930604486583846,4.1456462564954695
-7.298897161438754,-6.835649217648702,17.407774156779645
-8.35483406580511,-5.4951567523467855,5.215081364512637
-0.9774334674456218,9.952116549594725,4.2299002110508805
3.7566145577039096,9.267569641758676,13.986234266130682
9.728419764189843,2.3147027653071217,11.542507368845957
-9.035920019266976,-4.283940873239297,5.171096898674074
-9.199098147013526,-3.921299947927002,11.035706472228918
4.849732856197642,-8.745289659211812,16.217554675802692
7.30709574484961,-6.826884485297866,15.28219791198576
7.240311636197246,-6.897672608260467,18.9254868064405
-9.529476959529914,-3.0313476999164117,8.713842440498471
-4.395902244504597,8.981984383016897,0.17376452286547606
-9.76322963926519,-2.163179837871487,3.6660406095669607
-1.8399400411868845,-9.82927365805008,15.169818966673308
-7.204810392095002,6.934746369836452,15.827929030247144
3.243262484336471,-9.459452862491341,9.880438207175064
8.15063026560178,-5.793723006276384,8.017980343482796
1.5290522480724946,-9.882408573959308,4.610317694034142
-9.864375015253101,-1.6413730710750631,3.8404189917373777
7.902542012052965,-6.127791588144774,13.299735439316132
-9.996720165816642,-0.2560974938473201,8.366134026410775
-3.7350283270082283,-9.27629038982966,3.678149341649508
4.012170689833009,9.159830039670219,11.904835469895254
-8.957712287512045,-4.445153605237476,1.0511064996626907
-9.586155152412312,-2.8470387060731905,12.600571897464356
6.874794690393476,7.262038141247791,14.856971694696641
7.513322666988941,-6.59924105497823,3.8627623524865062
-1.6846943737824092,9.857068776616398,9.76885676471346
5.57998223500824,8.298421431633395,12.820224384842572
-9.999937290120362,-0.03541459671149822,7.27928275047538
1.1105869438262856,-9.938138489687221,2.7743092444059014
-7.8167419654507375,6.236869811496897,2.350499782891018
-5.672302350705327,-8.235592634545666,15.943129455606432
-2.230443145704391,-9.748083061493695,19.67580124923646
-7.117835115964011,-7.02398912740827,1.076019557845933
-8.607058952426085,-5.091025062741489,19.455128762059037
-2.9539082190534383,-9.553765029212753,7.382117862202389
-5.374701323602928,-8.43282785796443,19.130523173884928
9.816340019910466,1.9077391366495047,5.031931322445455
1.9919265271647508,9.799603497610368,1.4104087898454232
-7.754910457421568,6.313585652968811,16.487201348152915
8.241535664027538,5.6636639994408355,8.09715841325286
-9.128601040935697,-4.08272495221362,4.83456432489046
-6.834244453415383,7.3002125140958105,16.300744773546295
6.535589740656448,7.568755957343729,12.038905361017827
-8.369175349839464,5.473290049288404,3.8811318456209642
-9.341434699018565,-3.5689771313321614,5.548966018211983
7.790040583793656,6.270188809186514,4.261486226919682
-9.970423192447406,-0.7685449651821968,7.04455565769176
-9.949904118618507,0.9997039713327474,15.888102481458757
-8.634051045437648,5.045112738559671,10.05064838032826
6.91582404866013,-7.222975683745184,1.6052534568433474
-1.2637844601384296,9.919821008380778,0.9836893584799555
-8.174893732453057,-5.759436818222746,18.462581220052474
-6.54607698719711,-7.559687564819621,16.9815109925351
-7.424756797972951,-6.698730214820898,5.605230371911382
-4.953152453523698,-8.687133058273723,8.859477409106473
-8.57048330539585,5.152360227306612,7.52167759364331
-4.604366672248993,8.876925568432053,16.72936981790568
-4.55309289811768,-8.903333367964514,5.885785970074755
2.164406948327305,-9.762957674907359,9.719702044281235
-1.819450156342628,9.833087059951456,3.9122085513820437
-9.905844172387301,1.3690329551842533,7.700969215492628
0.6018424862170733,-9.981872851413408,8.957630098916209
-2.9020103237811163,-9.569657051361236,17.669344458234896
-1.4383112421500823,-9.896022472221084,6.453787494631575
-0.9270050230275888,-9.956940377810927,0.6214573186469186
8.758308477985167,-4.826181990399153,3.5227741846691663
-5.649149074932625,8.251491666916223,13.108454157662852
-6.775418432191948,7.354842287140738,13.137011976906404
-6.681342313245305,-7.4404075757473045,7.724187163679415
-9.97689426955305,-0.679397331581094,12.39696956843191
3.7623927756817444,-9.265225340028046,16.95763488071013
9.354434977480095,-3.5347625453624154,16.799306796005716
-9.398218546627783,3.416648672284226,19.332389581607323
-6.40190726297104,-7.682160073593796,5.156451079217055
-7.810864649528951,-6.2442288096080345,19.949570572209595
-9.698739345395891,-2.4360737078482817,16.393480624098878
-3.898731451188335,9.208685740729504,14.381824100807002
-4.437093813294904,-8.961707342466617,10.377094743830552
2.9308130438127926,-9.56087521632914,0.4816477505261596
-9.693938590291456,2.4551078606973875,16.685050884687254
9.94630485129901,-1.0349008672456521,2.9027932311198357
9.13536799053791,4.067560900276151,16.754265782554363
9.998591378016195,-0.16784056559777583,7.416252366902077
-6.414489156531003,7.6716575041346955,4.285473514801
2.349325246856981,9.720116814343353,19.31177433111437
7.046715892776838,7.095336153170358,12.564937976804131
6.703139064407373,-7.420776690024828,7.342540059626945
9.971936523087177,0.7486534442050113,5.49223917514202
-9.811882838979416,-1.930532349933878,4.964287289191018
-9.022651248410195,-4.311816838591587,11.125717230424655
-9.528711200298869,3.033753922337621,16.82935065409767
8.20160123461579,-5.721340506240537,5.876049198603228
9.99340185113607,-0.3632071608740335,6.413556741741977
-7.474011290862794,6.643730520126133,14.096301877773797
8.092727919341623,-5.874330159559352,8.27111604940429
4.504855721469606,-8.927837080096307,6.665691281036985
-5.522811399936558,8.336579288936846,17.727468906506438
-9.574155372878998,2.887135067150865,8.427593239875273
3.3376592048765232,-9.426559872620713,18.905811168572967
-4.080430748524255,-9.129626767097207,9.840773042152337
9.576394971780957,2.8796977869992575,7.496268373889734
-8.188805609751732,-5.739639595453582,12.676475040405277
-9.806407963810845,1.9581529172429935,3.807790272943987
-9.693692319243047,2.456080051596112,18.352316898314363
-9.767236225743323,-2.1450166690558174,11.525053819603198
-9.203149358289881,-3.911782443977242,14.232103347707174
-9.992637368155435,-0.3836644739138819,7.098427619970506
9.620977070094991,2.727049727582243,11.307337059901732
9.951853917734777,-0.9801038720803851,0.5785875918333505
-9.270054867185722,-3.750477670826253,1.2674250433445367
-1.888111842120512,-9.820134096418657,1.3429685790940837
7.405373450952721,6.720152085475788,18.116643402698458
5.607016569666385,8.280179055279335,5.999516133253895
9.999874657286897,0.05006833881071305,5.488481191447279
-9.923936768257292,-1.2310479355537072,12.683295936917409
-3.2437691999034852,9.459279115120639,17.81355598938376
-6.4464195907144966,-7.64484626794106,1.937988564727935
0.7551145797150207,-9.971449341570253,5.902393308437535
9.850497469233897,-1.7227012534437303,11.08507239812422
-8.68630588954542,4.954602909744487,3.767852135351253
1.941097241976896,9.809798239372189,14.405639177045646
2.557534548511886,9.667420391871252,5.415018173576243
-3.007612449791078,-9.536994670852119,19.64405517156646
-5.797889610526336,8.147666909253886,12.686461952181352
7.437319498937841,6.684779627685491,15.644368761625248
5.795823082119909,-8.149137058656338,18.106650415221527
0.6241733766181181,9.9805013699674,5.313172240862054
8.867522069121824,-4.622450903323626,13.005717434810787
4.519953631100667,-8.920202866118007,16.644180007959775
-6.516793931328256,-7.584945408940213,10.502054016792822
9.616647657960266,2.7422778529257954,1.11479146784349
-1.2783796525104727,9.917950668562895,7.206440449195421
-8.766795215354161,-4.810748554231803,10.082777392038906
2.498735586882327,9.682784747522163,8.685425469135435
4.662450979811199,8.84655587564209,19.626910078996957
5.19679073726108,-8.543615512949856,1.1924378432187521
-3.7270613819559477,-9.279494245654373,16.496010521875164
3.64767399180234,-9.310986760248818,7.370785957337656
-5.923350512608449,8.056917444331996,6.199441091106916
0.6867042922407924,9.976393998585765,2.2450833738632303
8.490149121126592,5.283688853540997,10.136414871377468
-4.949975653601398,-8.688943608330844,3.9261311333645676
7.429044054988248,-6.693975233674216,4.290761638863927
7.995730148630007,6.005688918874268,3.323662468574813
-6.011513366230302,-7.991352016250718,12.491021106413722
-9.98578552689643,-0.5329985092153529,5.35729793020939
-9.454429649499552,3.2578766094902623,4.669693685546086
9.366636525596322,3.50230212822436,12.728215551114253
7.33692204262467,-6.7948197136089075,15.176411160494558
8.333330680092825,-5.527711983834147,9.469813191482254
9.741065240766801,-2.2608953923445503,8.465744652685057
9.619698023587834,2.7315581514916225,12.433243758637511
9.93377896539565,-1.1489279640877967,17.274978313599384
5.296725530461711,-8.482022085266879,10.625838839343501
-7.493053009395466,6.6222470958421304,19.01892270044707
-7.498022593095744,-6.616619770957508,8.075219036593356
3.6106040985833108,9.325424282213298,8.870312484081428
-9.713787867778501,2.3753579224612014,1.1216893252945126
-5.534599739864547,8.328757753680394,0.49708480361126295
-1.9457257233189684,9.808881251682827,13.897932874011605
-6.84099506246588,7.293886930527335,4.387289596954583
-1.3634679859804442,9.906611683679058,12.731979474857322
0.12677625247625332,9.999196356798285,5.371323262262376
7.957975378189065,6.055627785798645,1.3432953595406305
3.9293832266509554,-9.195648289169945,5.467956000799548
5.312975838856035,-8.471852674340601,7.806802963470529
5.271842942794287,-8.497509752069137,0.2446871777852655
5.028480164842697,-8.643748447969987,19.45298336942498
8.68809166146644,-4.951470820065214,12.297600888905073
-4.1923196104637395,-9.078791565165552,8.32796599860905
-0.10571388637021453,-9.999441213099285,16.9165135492653
-2.7151506615475647,9.624341893610067,13.213806636726009
1.0456546331055636,9.945180058111813,14.743658160508273
9.575404802103876,2.8829885320351223,17.157708009241503
-9.729800706343118,-2.308891122345307,13.629117239983007
-9.998434997347903,-0.17691128796268304,5.38855271099459
-5.032823446240917,8.641220293394197,7.856391099390587
9.898099617122202,-1.4239466175125084,18.48018069029969
-6.091348643618586,7.930666535789159,17.525705482644415
-0.2793966564777382,9.996096113400924,2.0740139694485427
-0.18353454661574414,9.998315611651723,17.38271842274089
-7.369598946550112,-6.759364716229439,6.064275055593884
8.414320632871071,-5.403629177436232,5.28670194944048
-5.742169892217516,8.18703150897263,13.635068482717553
-5.928118677145004,-8.05340977162373,18.72172447321877
6.698175984166767,7.425256795904877,1.912994325296633
0.87369202133337,9.961759997704142,10.375291969616654
-7.75071004849069,6.318741468380033,17.439801884007682
9.989847996430361,0.45048530299701506,11.769596266162583
7.36418392356483,6.765263863287913,13.456249204515283
-5.429790292673725,-8.397462555890689,7.385066658603265
9.64604800478421,-2.6369978933246334,8.308551073929758
-1.2077644214156171,9.926797323525982,1.6981614013054647
0.5058346162227143,-9.987198372968809,5.290492601342134
5.064755717894966,8.622543100388091,4.3543614132769655
-1.6802662600726215,9.857824572148846,10.247918381916882
-1.1655243609508066,9.931845395697126,9.268495274290139
-1.5482762170977848,-9.879415000675362,8.059045349124654
9.680778455552069,2.5064972560365795,7.886831744722009
1.7494839325648404,-9.845776047102508,4.324422663369713
-3.866698101606825,-9.222182268369574,1.1489296876016497
-9.369219723134565,3.4953857840911167,11.259206207448116
9.294067875333923,-3.69056937730291,16.666652364523912
-9.720408452671315,-2.3481182920023533,5.43214010488736
9.489594816307154,3.1539800605451513,8.244240745321985
-8.294505833248117,-5.585801015271934,17.20904530647887
3.420604043961084,-9.396779659779039,19.16527777676652
-6.827659164549202,-7.306371899427738,5.335510800986507
6.033458414800109,-7.974796521346344,18.424438087881626
7.583980460862994,6.517916873453383,5.416953798281319
2.7898249386863854,9.602961877019169,10.566226397265178
6.851245184049826,7.284259703500011,18.669396299626744
-9.64180617944521,2.652465569618606,15.239084741472151
8.930795262740576,4.498988327947794,2.9949253673188037
3.070655662004228,-9.516883618359604,17.389930516755804
9.669721862931043,-2.548819156698528,5.160996129023876
-1.579430729092778,-9.874482192601162,4.6824309254251535
9.941501456890967,1.0800688786530201,3.4092443169992293
8.167479071608746,5.769946760138531,0.030187564416572776
-5.578324434595585,-8.299535920905086,18.78393703090471
-8.313333425025123,5.557741210632251,17.243170985831895
-2.935916666133591,-9.559309249601617,10.773042124767683
-2.340498433581671,-9.722245989605579,17.739389380387653
6.886571470448837,-7.250871215405783,7.13096065846174
-8.905689394747476,4.548482868416935,15.489821262975639
-5.4505323745422665,-8.384014362706367,11.961385013882936
-4.754341708536244,8.797512996209365,18.91832156418911
-1.039445442486159,-9.94583094427483,14.553674043563898
-8.797770286912511,-4.753865582735734,18.17990619317824
5.458852454134597,8.37859951805722,10.504246050739559
-1.9395434802508904,9.810105559483866,19.44241680809348
0.9982084922500187,-9.950054261460084,6.703057307980547
-0.9009539964275604,-9.95933139805686,11.376682704289712
1.3715242197363262,-9.905499548971605,11.214584834540132
-1.8461661570537125,9.828106151265844,0.1738854917951227
-0.020980935307637023,9.999977989993459,12.425697604386626
-9.946924969544368,1.0289235395571352,17.638975479070705
9.570681424258908,2.8986302067261893,4.06697661592583
9.872673704684587,-1.5906960491651185,16.926638594675698
-3.6316019388076572,9.31726716146148,10.236554229052592
-8.923208614798153,4.514016838337228,4.446660200570111
-8.905231338809047,-4.549379606308229,15.319561875337426
1.0135970678421684,9.948498428610307,11.35090402653691
-8.032621192942027,5.9562569429717005,0.16666599649210578
-6.9452297798843645,-7.194705227082441,15.311516112486473
0.03729271121395575,9.999930462442743,8.569803390398814
-1.1813794836864921,-9.929971929241525,1.0193576426680795
9.976402785266387,0.6865766280096244,9.49122041161187
-2.3097686135510926,9.72959243503315,4.797752478614894
9.997894073102682,-0.2052172093618532,12.185986207425382
-7.3204791998766705,6.8125314152797145,1.7359877044664573
6.747430417435856,7.3805272685534735,17.591712629852637
9.981448298109589,0.6088430603736852,12.268028662813194
-2.2566287350142282,-9.742054544720435,13.950501953034758
5.8279655119938205,-8.126181021304571,18.513878303039828
-5.457028318430711,-8.379787702074873,16.27291551561649
4.9583219437232975,-8.684183525374854,6.270639676436776
-9.895043284890983,-1.4450323145638841,10.86163339730314
-3.7502580929080893,9.270143700966958,19.208592895416253
-1.4712707396838556,9.891175987239846,1.221351377526878
6.534134191220651,7.570012574039838,18.755923842553237
-0.8618172667512419,9.962794336868017,14.54780095337225
9.628080124499405,2.7018647479508506,4.768709985839276
9.99995729631869,0.029224506883200004,3.539937731368288
2.2121709411281416,-9.752245881192097,16.09854979346084
3.017758380831932,9.533789086974739,8.510206751252007
-9.651826111354506,-2.6157700044490424,10.787132800597474
9.992869432208332,-0.3775718618174837,14.347048362893474
3.6661834833500406,-9.303714240367198,15.011849693265663
-9.036244303584795,-4.283256808309693,15.715001503137973
-7.721058323599021,-6.354939682135644,6.899705573751753
1.8366859719592736,9.829882229223706,8.901998313562967
-1.4168420738905336,9.89911907887028,8.251568833610747
-4.804245373630618,-8.770360676160863,19.605191668438327
2.335237588042032,9.723510960933588,19.738956517394264
3.4904273158758743,9.371068090275918,14.49829339656354
5.3319837217350745,8.459902457543597,13.021542009959726
4.215659628266866,-9.0679773874112,17.95058081349543
0.641104726148944,-9.979428076303245,13.772375921063757
7.625247815559079,6.469590075987157,10.503892199885103
-6.53874946039101,7.566026400577536,15.451008401580712
-9.560292388091812,2.932713667270259,10.574007883525045
7.097598336418844,7.044437369645957,15.38033942276243
-1.0914784328364924,9.940255269893868,1.623233338199952
9.433308456122534,3.318537565200536,18.368384467105237
-9.562210587649648,2.9264532590562564,14.25067439695598
-7.5021719650002385,-6.611914685442066,4.562943153412784
4.014615307321545,9.158758864290485,5.289396011224456
0.5322152737128674,-9.985827301852698,13.93386831732794
-6.88199562428959,7.255214416353174,2.2081710850320446
9.857694355077506,-1.6810300419305677,5.277926264605634
-3.282234420074863,9.446001122786077,3.9849671447444113
3.62223988638957,-9.320910803427338,1.256513977195024
-6.025783081108721,7.98059761292498,9.43663852969129
9.355828064780368,-3.5310736642369873,10.428445554638387
9.25088238276804,3.7975222369581836,0.23947484241663597
-3.800677764025032,-9.249586397998868,2.4097890567349034
-6.478781765391592,-7.6174396509870315,12.400296443357494
-7.957114456139696,6.056758995691728,6.864307624087134
5.815377177822267,-8.135194421749484,19.234550613069445
-9.506031281531005,-3.1040891215546647,14.933585526281783
-3.593023191491454,-9.332212189261694,9.928208618737848
9.46482431784876,3.2275533507997567,8.77981933751003
-2.95170005941076,9.554447485819079,0.885642719757147
-9.646144980340747,2.6366431344129633,6.800053764151013
8.782869614262825,-4.781338864675747,11.29390553805913
7.962678099755186,6.04944274125139,9.91177805352068
0.7079201078342111,-9.974910983107769,3.8919994821356685
-9.996406187081728,0.2680733908357006,3.7490747248485046
-3.823461185230549,-9.240191803476561,12.114550241592706
-4.193004824077142,-9.078475122247449,1.7949160971445544
7.655656593682086,6.43357770759101,2.1900791483658244
-5.831845783795361,-8.123396749761042,12.308924528483248
5.625260303898467,-8.267795746956024,6.67126575975545
6.545233625825395,-7.560417765134711,16.81349770736626
-9.171130357422578,-3.98627244015785,11.126304156744922
9.219275856469189,-3.8736226819766935,11.813483724519376
-9.932726878211355,-1.1579882395161585,13.935996263257639
7.567955656020249,-6.536516441386126,10.602275892728006
7.820637648019824,6.231984176678802,5.131571794867544
-9.98278090827819,0.5865878768918353,9.794057636693637
3.912278309106675,-9.202938575916576,15.084769798307835
-7.145426785399845,-6.995918528291366,15.759015581549086
3.685060800338433,-9.296253379604554,4.1905347258655095
-8.001086137601904,-5.998551543387341,19.86005921757249
9.999946611081995,-0.03267683445081958,4.537010383199201
-0.27947532213674336,9.99609391434057,17.171433044746884
-9.99779156157263,-0.21015206719684013,12.307766634613886
-9.347538816578544,3.5529590586660853,1.8406666996609578
-1.4191225382596362,9.898792412279567,10.486803224628321
-2.7643847072144894,-9.610316185772383,9.578820900860824
6.898465664929737,-7.239556027118343,3.172745853294874
-7.094047695697104,-7.048013003050903,12.22187263532853
1.3865103918506043,-9.903412994179849,18.991387618597884
3.985995762463224,-9.17125061164644,13.842630670181702
0.3392523405999354,-9.994243735740962,9.772624709033996
8.008612549047648,5.988499397949083,10.137661275332055
-9.358351581503921,3.524380183374523,14.163193010876004
3.3818506174895715,-9.410796268169097,6.066264012676603
8.758103220008906,4.826554463348533,11.670120615127157
-2.2007739946386016,-9.754824130886341,1.819259484470681
5.10569925011073,8.598362353810098,5.667419016323663
-8.827774050205987,-4.697914996943836,11.868156234448854
-3.4648152685335125,9.380567954816865,11.311677886547562
-6.5131814426439245,-7.5880476734927536,2.3360220407407195
-3.6153644922162975,9.32357976253872,13.31069663105102
6.731783422547373,7.394801684421049,9.475505898288963
-8.270027471268204,-5.621978799717164,8.300175442625484
1.137558508701743,9.935087349353314,1.8847852738287751
-0.4285834105693936,9.990811591666851,18.490896883795408
1.6627087892464123,9.86080115823064,3.505786365977477
-7.303578223811076,-6.83064748970935,17.565241469365592
-2.0578564127913,9.785970927012492,5.757952811196894
0.5609127564831241,9.984256451013993,10.704471680314711
2.0105087043840957,-9.795808019229234,19.94523935555765
-9.773852407692283,-2.114665248366213,4.800815639183544
4.041774746367085,-9.146805830432244,10.2557227943476
-4.368881146478455,8.99515856046713,10.140672691554126
-7.940510659210051,6.078510547080722,4.768454199884995
-6.737901428743705,-7.389227587274162,3.4561349053094848
8.978598883431886,4.402812974728283,9.793488542449376
-9.435280525814715,3.312926410166937,9.722635787142064
-9.356115426374902,3.5303121856784263,4.855374035325566
-5.05907522415023,-8.625877223586556,11.468274196339788
5.409697432928759,8.410420541457126,19.71212341744244
9.103681515212719,4.137992613523402,4.0726340178133285
3.179750881402701,9.48099068305727,18.804119810186684
-3.9132976270367603,-9.202505185123695,6.628750117103159
6.3125950737914955,-7.7557168227278215,14.088914818207748
-3.781907466919379,9.257276916656402,3.3048004312777635
5.240573885583252,-8.516829536261886,9.83498503445318
-4.894854371160628,-8.72011471742945,12.207683541534163
2.8177576708831396,9.594802848843702,1.2559692657165034
9.99604441138674,0.2812403342053774,19.699174174363982
-7.911598142013757,-6.11609473759886,1.0518980398380418
7.1817164744578115,-6.958659962988655,8.692355162675831
-0.8530825865350404,9.963546060542436,5.331215922115165
-1.4162850300333742,-9.89919879150345,10.218023268914871
-9.5137350534294,-3.0803969440883225,8.359622857486562
9.99999772872118,0.006739849498424246,14.043386691786136
-5.631095923920158,-8.26382228122131,2.735796028668105
3.2085771064088298,-9.471274093395731,10.62529737337653
-9.503130333595339,-3.112959020401674,0.08679307246019619
8.667585082389284,4.98728070591006,5.650417346439093
5.638118771850027,8.259032432101979,19.65908309736635
6.142296503009269,7.891273260324984,18.550073285594685
-7.485690083674358,-6.630568902528604,19.543101747462227
-5.698314618196521,8.217615865447097,1.4896055740070002
-9.598152107850744,2.806327870110743,13.335750805105913
-5.640111847001412,8.257671484947455,6.615212063219957
8.30685245137557,5.567423313443632,3.391948682348367
-2.1484829718579266,9.766474334151322,17.623571759134883
9.071592363795657,-4.207874996375762,17.5594842463314
-9.798117008731989,-1.9992256208834767,16.567928028905808
-6.990480134099424,7.150747338199085,19.04359538214417
-3.2731896164208485,-9.449139100201391,14.933549697762531
8.610403047645116,-5.085367180165429,13.915184431044157
-1.8039775202252037,-9.835937428965382,2.633664809767977
-4.01064420073143,9.160498517828566,12.8624650590593
-9.038241087865934,4.279041719545631,0.502030626082206
-8.59195372102829,5.116476449247873,3.6933780074770217
9.507247104443534,3.1003632843668543,5.9365751662403055
-3.7760525704390995,-9.259666677871309,17.568290341658827
-6.314854327024087,-7.753877406076598,9.551684627437954
9.87490019635983,1.5768151800171781,0.17244348247769548
4.538857731783166,8.9105987728453,8.539211013165428
0.7733421972579045,-9.97005224890724,15.224237739164488
-8.070711856764042,5.904541483052542,16.339358571009008
-7.003533375784037,7.137963312757992,15.777218481973225
8.158542119776225,5.782576456895082,14.606466061952037
5.821057554893625,-8.131130852631498,7.919332456778885
9.942237410177947,-1.0732731617151883,14.377856658266117
-7.181485496661133,6.958898336751716,5.901297256663622
2.0310270549731593,-9.791574393424535,19.570718551263486
-3.0508263836969434,9.523258810750585,12.50090696434909
6.486289895509545,-7.611047456914902,9.718138537215664
-4.814309346794166,-8.764840301646707,18.74364391820738
8.89909623941689,-4.561368886814149,9.35330604767535
0.19786045399954322,9.998042370421476,4.7984402311013525
9.937433444188175,1.1168780337755575,4.644779932126877
1.7244252117800385,-9.850195819829034,9.281642043849184
7.724071082417439,6.351277502500005,19.889108772287788
-3.1281591154278967,9.498137741081951,0.6600132519511415
-9.543166440583324,2.9879716008229096,6.249732536035584
6.370037646447382,7.708606902861444,11.128986421726532
-9.019941233068662,4.317483080683441,16.340906586899948
-7.514381139839594,6.59803577477593,10.176209573119156
-9.999733582258836,-0.07299509466301454,6.6720828821082705
-9.549246774483525,-2.9684821104423027,11.692830417725533
-6.483797989251649,-7.613170406248391,19.636357917090685
-7.833966442783459,6.215220814528047,6.654356814360489
-3.333099231833183,-9.42817317993009,10.463327898949629
9.739063245389998,2.2695037127737097,0.7623534588319836
-7.621118869441153,6.474453426957986,7.174506849559368
7.399617951228205,6.726488993216395,9.220954038469335
9.999948037953395,-0.03223721811890483,10.321897462904225
-5.404765266929092,-8.413590934279899,5.753047860363307
-8.986816532284823,-4.386015117968951,12.474204422227238
-7.9396056761218965,-6.079692566873177,13.524508348145494
-1.419529027200723,9.89873412820723,16.671071967648466
5.18887767930361,8.548423739451898,14.858287709228673
8.691848296571557,4.944873425011619,8.228602441114376
2.2759120783277695,-9.737567674307675,3.254097443207855
-9.633968600920939,2.6807926060158866,8.356983384515544
9.979933701736483,0.6331850511061853,3.6564349566651266
-9.586277727521871,2.846625955551259,5.478114299784189
-0.617987448629133,-9.980886309007674,13.48765044142831
5.53663300162061,-8.327406259176115,9.831479426497044
7.72640499120074,-6.3484380686865265,4.197301437765059
-8.57231121748145,5.149318439428823,10.599691215637172
-8.64756133561862,-5.02192024495749,14.950241727019817
-9.43830760364764,3.3042925988669825,15.165164408647072
9.961836714309815,0.8728168636254928,4.911609446736849
-1.5239171276942658,-9.883201737692096,8.661488220567435
-9.987535763322553,0.4991286170447354,5.99348804774648
6.396763963225673,7.686443312662715,1.1836586566141416
-8.905130452963466,-4.5495770809716705,14.56145128477469
2.714645091424715,9.62448450711017,5.212103927859538
8.463365767032649,-5.326484759521976,10.759886765026351
6.203462312068957,-7.84328090423517,3.7605723899296173
-8.632750055324363,-5.047338554356859,6.002844428619221
9.939804846425528,-1.0955727337678596,14.160392465708764
9.966566343891458,-0.8170405821071781,3.5305263271793508
-9.535919326838942,3.011020191234122,6.850134571843451
-8.709884144124038,4.913035537825537,4.830510379281893
7.914275319909612,-6.112630052658972,2.5223008793569712
-6.508635742036031,7.591947100546149,12.651498708049312
-0.8745329554017551,-9.96168620816357,18.010846164266226
-5.0751853147059585,8.616408417745355,19.43436023274971
3.4402193447883094,-9.389616118870052,18.490123425058606
1.3971778400577803,-9.901913657634644,13.18638360098937
-9.71330784014615,-2.377320088367432,19.91797784728255
-2.659308310202259,9.63992112578154,4.545593774780807
-6.902085676717968,7.236104843853816,7.3216274879762295
0.5690218909372003,9.983797578458521,16.559045692953326
7.100341827486209,-7.041672097793947,14.558305999076673
-9.111362819921817,4.121051754558093,14.463326762009887
-3.1232919098481267,9.499739346207202,15.056507397547335
-8.586081599697602,-5.1263244886891695,14.14902222017478
0.5771776141024587,9.983329404651487,17.34571346017203
-9.763927661632296,-2.160026994834014,0.6849106851595543
4.773482978669257,8.787141756700803,16.222249929857067
-9.817130587373391,-1.9036667330333314,5.552335000837775
-9.970373928927014,-0.769183799473495,2.8061786042508996
-1.8528833569591021,9.826841978250387,8.623733904575898
-8.745716973627813,-4.84896222064045,12.711207078500673
8.280767538211828,5.606147427431535,1.9054556893503927
3.4683990855280413,9.379243454752,8.9798630942785
-9.275317001149817,-3.737444919752149,9.804712909942328
-8.923474095342899,4.513492003952619,1.364029431283762
-8.055690802359095,5.92501862417217,10.451177202567516
-1.5535714418474036,9.87858369277075,10.591564665469681
-9.158923313115741,-4.014240120429392,11.767604754226383
-9.716360331764857,2.3648132914262647,16.921171672110034
2.0714788445906835,9.78309641148513,1.5174945510145155
-0.7201138848048727,9.974038098629423,7.437090806990312
2.422881473454849,-9.702043360323085,12.22161329487594
-8.341490080371726,5.515391485566558,15.381976648205168
-7.908395419986589,-6.120235443276275,8.870422538284085
-8.230964998111274,-5.679015337174842,18.491913239437906
-4.176225228076499,9.08620618544271,18.263228231802064
-9.114111065896457,-4.114970167389279,12.454295227165165
-4.801959933950027,-8.771612211716764,15.946769046475818
-9.14946614647416,4.035748906277905,14.206962039482185
1.1742077555750254,9.930822531228088,17.449474537839265
-9.874492473240904,-1.579366453964604,17.484749846266496
9.948745486649273,-1.0111692449218082,16.19516465941484
1.8049497009910909,9.835759074768564,0.18863971268353819
-0.34992313358289195,9.993875814746925,7.462989943290836
2.356500268082073,-9.7183798282702,15.350273707687673
-3.1529992707225847,-9.489920737225514,14.534215246822853
-8.439902040509779,-5.363585885077155,17.216534656421636
-9.999321036933615,-0.11652810964236635,7.148106306601196
-7.752503726341647,6.316540665036429,19.35003000747485
-0.9317369601465119,9.956498693672236,4.09933424329862
2.2942606328001807,9.733260920615624,11.00774804272862
-9.853258248795823,1.7068397354576272,15.995664544398956
-9.218596529843795,-3.8752390919725106,12.637917788645627
8.276405102441933,-5.612585730327257,1.845241263218953
